# .PCD v0.7 - Point Cloud Data file format
VERSION 0.7
FIELDS x y z
SIZE 4 4 4
TYPE F F F
COUNT 1 1 1
WIDTH 815
HEIGHT 1
VIEWPOINT 0 0 0 1 0 0 0
POINTS 815
DATA ascii
2.536137580871582 -2.1500401496887207 -0.25992023944854736
0.9656317234039307 1.4353876113891602 -0.01086983922868967
2.0279417037963867 0.2698647379875183 -0.1308630108833313
4.362381935119629 -1.2830915451049805 -0.3419029712677002
2.5397493839263916 -2.1691510677337646 -0.2587575912475586
0.9540431499481201 1.4069989919662476 -0.012461538426578045
2.0288944244384766 0.2624272406101227 -0.13122007250785828
4.338651180267334 -1.2934081554412842 -0.3388231098651886
2.554626703262329 -2.19810152053833 -0.2581339180469513
0.9812519550323486 1.436844825744629 -0.014880496077239513
2.024869203567505 0.25436440110206604 -0.13125619292259216
4.329620838165283 -1.3063651323318481 -0.33766064047813416
2.56968092918396 -2.226712465286255 -0.2580513060092926
0.9638239741325378 1.4002773761749268 -0.01631857641041279
2.020855188369751 0.24598196148872375 -0.13129059970378876
4.290850639343262 -1.31430184841156 -0.33348819613456726
2.579665184020996 -2.253558874130249 -0.2569541037082672
0.9660897254943848 1.3926125764846802 -0.018045488744974136
2.0167651176452637 0.23798605799674988 -0.13132323324680328
4.26706600189209 -1.324142575263977 -0.3304465115070343
2.579108238220215 -2.2697927951812744 -0.2535048723220825
0.985254168510437 1.4097055196762085 -0.020112715661525726
2.0374302864074707 0.23285630345344543 -0.13297180831432343
4.253245830535889 -1.3353326320648193 -0.3281528055667877
2.5903615951538086 -2.2949843406677246 -0.2529285252094269
0.9788875579833984 1.3897203207015991 -0.021362267434597015
2.0234081745147705 0.22338633239269257 -0.13235649466514587
4.266838073730469 -1.3592605590820312 -0.32649481296539307
2.5962023735046387 -2.3188278675079346 -0.250741183757782
0.9955371022224426 1.4024112224578857 -0.02341461181640625
1.999383807182312 0.2133195549249649 -0.13108542561531067
4.285665988922119 -1.3825805187225342 -0.3267408311367035
2.6100926399230957 -2.3484888076782227 -0.2498326152563095
1.006473422050476 1.4068645238876343 -0.02536221593618393
2.024991273880005 0.20854809880256653 -0.13235649466514587
4.28541898727417 -1.3998630046844482 -0.3255290389060974
2.6270806789398193 -2.3820912837982178 -0.24922215938568115
1.005759596824646 1.3950332403182983 -0.02701658569276333
2.030719041824341 0.2012609839439392 -0.13303706049919128
4.294377326965332 -1.4210610389709473 -0.32424092292785645
2.6406209468841553 -2.4120635986328125 -0.24758020043373108
1.001551628112793 1.3795299530029297 -0.028566213324666023
2.036386728286743 0.19428831338882446 -0.13371938467025757
4.303433895111084 -1.4415793418884277 -0.32372915744781494
2.635559558868408 -2.425219774246216 -0.24542513489723206
1.0183935165405273 1.3919678926467896 -0.030406422913074493
2.0370850563049316 0.1868232935667038 -0.13371938467025757
4.312962055206299 -1.4606962203979492 -0.3224122226238251
2.6605963706970215 -2.464601993560791 -0.24533666670322418
1.0145692825317383 1.3761283159255981 -0.03193243220448494
2.0327627658843994 0.17891624569892883 -0.13374938070774078
4.316399097442627 -1.4820433855056763 -0.32072892785072327
2.665452718734741 -2.48905611038208 -0.2428676187992096
1.0106420516967773 1.3603345155715942 -0.03342699632048607
2.028439998626709 0.1706893891096115 -0.1337776780128479
4.32988977432251 -1.5044385194778442 -0.3205309808254242
2.6778299808502197 -2.5199320316314697 -0.24165230989456177
1.0510634183883667 1.4049855470657349 -0.03614146634936333
2.0389750003814697 0.16405202448368073 -0.13479045033454895
4.334395408630371 -1.522131323814392 -0.31962502002716064
2.6985583305358887 -2.5563642978668213 -0.24168036878108978
2.039562463760376 0.1565777063369751 -0.13479045033454895
4.342184066772461 -1.5453283786773682 -0.31905731558799744
2.6920948028564453 -2.57082462310791 -0.23745717108249664
2.0401251316070557 0.14874351024627686 -0.13514746725559235
4.364807605743408 -1.571427583694458 -0.3187001645565033
2.7115726470947266 -2.6084933280944824 -0.2367202639579773
2.035702705383301 0.14092212915420532 -0.1344616860151291
4.373844623565674 -1.5910847187042236 -0.31647899746894836
2.7174243927001953 -2.631528615951538 -0.23401488363742828
2.0461628437042236 0.13411258161067963 -0.1351192146539688
4.376606464385986 -1.6128798723220825 -0.3155292570590973
2.7176973819732666 -2.6530160903930664 -0.23162682354450226
2.0317001342773438 0.12533190846443176 -0.13448822498321533
4.3895182609558105 -1.6359363794326782 -0.31442639231681824
2.743213653564453 -2.698573350906372 -0.2313125729560852
2.032081127166748 0.11859249323606491 -0.13484348356723785
4.393509864807129 -1.6540377140045166 -0.3134574294090271
2.752096176147461 -2.7253284454345703 -0.23010872304439545
2.0374834537506104 0.11141615360975266 -0.1351739764213562
2.7669668197631836 -2.76021409034729 -0.22877390682697296
2.0279433727264404 0.10237633436918259 -0.1348673701286316
2.770111083984375 -2.785625696182251 -0.22582878172397614
2.053222894668579 0.09610923379659653 -0.1365242302417755
5.1183271408081055 -1.994523286819458 -0.3600442111492157
2.7810895442962646 -2.8172426223754883 -0.22340506315231323
2.0386009216308594 0.08865076303482056 -0.1351739764213562
5.1351318359375 -2.020711898803711 -0.3578267991542816
2.806821823120117 -2.862231969833374 -0.22272400557994843
2.0289368629455566 0.07971715182065964 -0.13522176444530487
5.1544928550720215 -2.0533063411712646 -0.35879963636398315
2.816331386566162 -2.8950860500335693 -0.22086364030838013
2.0042381286621094 0.0720910131931305 -0.13391061127185822
5.1664042472839355 -2.0779287815093994 -0.35620272159576416
2.8167481422424316 -2.915809392929077 -0.21814481914043427
1.98456609249115 0.06340765953063965 -0.13257817924022675
5.172059059143066 -2.104362726211548 -0.3542366325855255
2.839723825454712 -2.963306427001953 -0.21653346717357635
2.1692497730255127 1.0528632402420044 -0.13438808917999268
1.9947688579559326 0.056067366153001785 -0.13324439525604248
5.187186241149902 -2.1337685585021973 -0.3528827130794525
2.8599722385406494 -3.0064172744750977 -0.21455906331539154
1.9899331331253052 0.04932795464992523 -0.13325870037078857
5.189413070678711 -2.154832601547241 -0.3515492081642151
2.8775525093078613 -3.0450549125671387 -0.2129686027765274
2.1679258346557617 1.0321903228759766 -0.1367652267217636
2.0000905990600586 0.041546691209077835 -0.133926659822464
5.1946940422058105 -2.1815147399902344 -0.34953585267066956
2.8893392086029053 -3.082219362258911 -0.21105876564979553
2.1761441230773926 1.0263363122940063 -0.13830935955047607
2.0202226638793945 0.0349104180932045 -0.13455729186534882
5.210628986358643 -2.208561658859253 -0.34713298082351685
2.9065027236938477 -3.121208429336548 -0.20784413814544678
0.7109071016311646 0.8317771553993225 -0.04222562164068222
2.035231351852417 0.027708472684025764 -0.13661977648735046
5.215928077697754 -2.2344720363616943 -0.3470609486103058
2.9290175437927246 -3.168593168258667 -0.20801860094070435
0.7041417956352234 0.8177738189697266 -0.04277729615569115
1.8799643516540527 0.8698602914810181 -0.12125309556722641
2.035367012023926 0.0202492643147707 -0.1359092742204666
5.226246356964111 -2.261598587036133 -0.34430640935897827
2.9276845455169678 -3.1905322074890137 -0.20345070958137512
0.6907414197921753 0.7962897419929504 -0.04270700737833977
1.8786752223968506 0.8605213165283203 -0.12240353971719742
2.0354297161102295 0.012433887459337711 -0.1359092742204666
5.24552583694458 -2.29280424118042 -0.3431195318698883
2.963177442550659 -3.253066062927246 -0.20289601385593414
0.6834953427314758 0.7826777100563049 -0.04300660640001297
1.8678455352783203 0.8480786085128784 -0.12223263829946518
2.035461664199829 0.0049735805951058865 -0.1359092742204666
5.250839710235596 -2.3180859088897705 -0.34301522374153137
2.974802017211914 -3.2899692058563232 -0.200637549161911
0.683290421962738 0.7761325240135193 -0.0442437008023262
1.8981750011444092 0.8534718751907349 -0.12547004222869873
2.0504088401794434 -0.0025050484109669924 -0.13726648688316345
5.264035224914551 -2.3503079414367676 -0.34148815274238586
2.9550392627716064 -3.2946016788482666 -0.19555118680000305
0.6789456605911255 0.7665992975234985 -0.044531144201755524
1.8373996019363403 0.8180630207061768 -0.12231073528528214
2.0404062271118164 -0.01032751239836216 -0.13659849762916565
5.273802280426025 -2.377889633178711 -0.33863213658332825
2.943056344985962 -3.3055362701416016 -0.19168898463249207
0.6817195415496826 0.7640705704689026 -0.04560348391532898
1.8541691303253174 0.8170130848884583 -0.12428217381238937
2.0453436374664307 -0.01784944348037243 -0.13693249225616455
5.25241756439209 -2.389237642288208 -0.3347342908382416
2.924436569213867 -3.3089635372161865 -0.18663190305233002
0.6844885349273682 0.7615369558334351 -0.04649706184864044
1.8339413404464722 0.800848126411438 -0.12379942834377289
2.0352962017059326 -0.02451179176568985 -0.13626453280448914
5.2165679931640625 -2.3960447311401367 -0.32999125123023987
2.906363010406494 -3.311738967895508 -0.1831335872411728
0.6872531175613403 0.7589987516403198 -0.0472119003534317
1.8642877340316772 0.805976927280426 -0.1267152577638626
2.0351755619049072 -0.0330369807779789 -0.13626453280448914
5.193899631500244 -2.4098262786865234 -0.3261324465274811
2.8916475772857666 -3.318263530731201 -0.17754873633384705
0.6933567523956299 0.7601214647293091 -0.048699211329221725
2.0400426387786865 -0.039883196353912354 -0.13659849762916565
5.158854961395264 -2.414388418197632 -0.32243824005126953
2.876878261566162 -3.3246750831604004 -0.17351053655147552
0.6927182674407959 0.7538533806800842 -0.04971364513039589
2.039818286895752 -0.04807098209857941 -0.13731072843074799
5.131171226501465 -2.426589250564575 -0.31932657957077026
2.860333204269409 -3.3324966430664062 -0.170247420668602
0.6953217387199402 0.7514051795005798 -0.050428375601768494
3.6953554153442383 1.548832893371582 -0.2562999725341797
2.034698963165283 -0.0550573356449604 -0.13626453280448914
5.10977840423584 -2.437239170074463 -0.3145318031311035
2.8429157733917236 -3.334514856338501 -0.16450665891170502
0.7082560658454895 0.7597774863243103 -0.05207280442118645
2.024510622024536 -0.06220807135105133 -0.13559657335281372
5.09153413772583 -2.4525792598724365 -0.3110180199146271
2.8307671546936035 -3.3450207710266113 -0.16068266332149506
0.7178283929824829 0.764409601688385 -0.053854670375585556
2.00924015045166 -0.06981310248374939 -0.13529638946056366
5.068326473236084 -2.466515302658081 -0.3072424530982971
2.804572820663452 -3.341175079345703 -0.15538173913955688
0.7068670988082886 0.7472296953201294 -0.05372650921344757
1.9990140199661255 -0.07644496858119965 -0.13462494313716888
5.04233455657959 -2.474580764770508 -0.3032130002975464
2.7999634742736816 -3.358236312866211 -0.15192218124866486
0.7161949872970581 0.7520788908004761 -0.05515443906188011
1.993782877922058 -0.08356425911188126 -0.13359268009662628
5.019949913024902 -2.486466884613037 -0.29947125911712646
2.7845335006713867 -3.3647267818450928 -0.14793725311756134
0.725818932056427 0.7566125392913818 -0.05678275227546692
1.9984465837478638 -0.09109845012426376 -0.133926659822464
4.99220609664917 -2.4977314472198486 -0.2954808473587036
2.771132469177246 -3.3760337829589844 -0.141838937997818
0.7285454273223877 0.7539039850234985 -0.057880666106939316
1.9980354309082031 -0.0987689346075058 -0.13462494313716888
4.965764045715332 -2.5062127113342285 -0.29151126742362976
2.753652811050415 -3.3775153160095215 -0.13923265039920807
0.7312753796577454 0.7511995434761047 -0.058612577617168427
3.7701621055603027 1.4676510095596313 -0.27368366718292236
2.0076937675476074 -0.1066243052482605 -0.13424372673034668
4.9299845695495605 -2.510868787765503 -0.2870444059371948
2.7413599491119385 -3.3877148628234863 -0.13390852510929108
0.7374754548072815 0.7520341873168945 -0.05999472364783287
3.775381565093994 1.4537712335586548 -0.27580198645591736
1.9923471212387085 -0.11313366144895554 -0.13324439525604248
4.907557964324951 -2.522142171859741 -0.2833781838417053
2.725867748260498 -3.3939332962036133 -0.12995624542236328
0.7401823401451111 0.7492810487747192 -0.06109769642353058
3.7813024520874023 1.4378926753997803 -0.2779202163219452
1.9968308210372925 -0.12108199298381805 -0.13427580893039703
4.884228229522705 -2.5349886417388916 -0.2797275483608246
2.709190845489502 -3.401043653488159 -0.12525369226932526
0.7391055226325989 0.7432450652122498 -0.06172287091612816
3.8092544078826904 1.4340814352035522 -0.2817648947238922
2.0113093852996826 -0.12936054170131683 -0.13528037071228027
4.858225345611572 -2.541978597640991 -0.27584129571914673
2.6948633193969727 -3.4061732292175293 -0.12131951749324799
0.7454484701156616 0.743888795375824 -0.06293582916259766
3.795694589614868 1.4131144285202026 -0.28179749846458435
2.030754566192627 -0.13808685541152954 -0.13626453280448914
4.844140529632568 -2.558349132537842 -0.2727217376232147
2.676264524459839 -3.4082634449005127 -0.11650241166353226
0.744577169418335 0.7375925183296204 -0.06373512744903564
3.8056347370147705 1.4002009630203247 -0.2842678129673004
2.045137405395508 -0.14695605635643005 -0.13726648688316345
4.81286096572876 -2.5644335746765137 -0.2676715552806854
2.663828134536743 -3.4181439876556396 -0.1119643822312355
0.7614685893058777 0.7488157749176025 -0.06588113307952881
2.0396103858947754 -0.15407508611679077 -0.13693249225616455
4.793854713439941 -2.579066753387451 -0.2643311023712158
2.650155544281006 -3.428900718688965 -0.1074262335896492
0.7570248246192932 0.7390076518058777 -0.06618866324424744
2.039055824279785 -0.16155147552490234 -0.13657550513744354
4.759055137634277 -2.580730676651001 -0.2600414752960205
2.6327500343322754 -3.4298272132873535 -0.10265062004327774
0.7560864090919495 0.7326986789703369 -0.06716281920671463
2.0433623790740967 -0.17014943063259125 -0.136908620595932
4.735672473907471 -2.592705011367798 -0.25555264949798584
2.6099307537078857 -3.4285058975219727 -0.09853444993495941
0.758478045463562 0.7301546931266785 -0.06789783388376236
2.03281569480896 -0.17641837894916534 -0.13624238967895508
4.705300807952881 -2.5963945388793945 -0.2515568137168884
2.595583200454712 -3.4332215785980225 -0.09466426074504852
0.7647043466567993 0.7307673096656799 -0.06932730972766876
2.0470850467681885 -0.18521864712238312 -0.1368829756975174
4.686683177947998 -2.6096458435058594 -0.24828054010868073
2.568049430847168 -3.4228086471557617 -0.08888671547174454
0.7928011417388916 0.7518144249916077 -0.07256992161273956
3.8490207195281982 1.3200663328170776 -0.29810166358947754
2.0364584922790527 -0.1917848140001297 -0.13621848821640015
4.664135456085205 -2.6195318698883057 -0.2447861135005951
2.4546029567718506 -3.2955026626586914 -0.08177026361227036
3.863408088684082 1.3084430694580078 -0.3002561330795288
4.65899658203125 -2.6391544342041016 -0.24127650260925293
2.4574148654937744 -3.3246448040008545 -0.07793829590082169
3.8726563453674316 1.2957727909088135 -0.30418699979782104
4.666676998138428 -2.6661453247070312 -0.2412387877702713
2.445244312286377 -3.333672046661377 -0.07505201548337936
0.9797402024269104 0.9094752073287964 -0.0925404280424118
3.8679111003875732 1.2784404754638672 -0.30344417691230774
4.760928630828857 -2.7431867122650146 -0.2418246567249298
2.430119752883911 -3.338642120361328 -0.06991630047559738
1.0013223886489868 0.9227002263069153 -0.0959305465221405
3.8772780895233154 1.2650431394577026 -0.3073748052120209
4.473370552062988 -0.489123672246933 -0.2996806800365448
2.2890772819519043 -1.3301362991333008 -0.1155913695693016
2.4149742126464844 -3.3435218334198 -0.06623239815235138
1.0487951040267944 0.9593612551689148 -0.10138770192861557
3.8817861080169678 1.2507907152175903 -0.3087984025478363
4.526132106781006 -0.5116869211196899 -0.3025403618812561
2.288097858428955 -1.3418822288513184 -0.11395766586065292
2.3986611366271973 -3.3491790294647217 -0.06183818355202675
1.111487627029419 1.0088963508605957 -0.10838964581489563
3.881490707397461 1.2350105047225952 -0.3098427951335907
4.539144515991211 -0.5300145745277405 -0.3027368485927582
2.2789487838745117 -1.3477665185928345 -0.11143258213996887
2.386411428451538 -3.3580071926116943 -0.05680517479777336
1.1002886295318604 0.9913999438285828 -0.10824175179004669
3.89080548286438 1.221542239189148 -0.3123573064804077
4.546982288360596 -0.548634946346283 -0.3033978343009949
2.261373996734619 -1.348049521446228 -0.1103423461318016
2.375290632247925 -3.3659417629241943 -0.05321011692285538
1.0964107513427734 0.9806487560272217 -0.10879656672477722
3.8951518535614014 1.2072409391403198 -0.313780814409256
4.549943923950195 -0.565919041633606 -0.3029281198978424
2.247920036315918 -1.351220726966858 -0.10809258371591568
2.3629684448242188 -3.374668598175049 -0.04889599233865738
1.099570870399475 0.9769312739372253 -0.11033691465854645
3.8991317749023438 1.1935726404190063 -0.3166276812553406
4.562633514404297 -0.5844868421554565 -0.30471983551979065
2.2387278079986572 -1.356890082359314 -0.10651600360870361
2.3591651916503906 -3.395658493041992 -0.04546578228473663
1.0993175506591797 0.9695197939872742 -0.11149788647890091
3.9032673835754395 1.1792093515396118 -0.31947439908981323
4.431755065917969 -0.5850254893302917 -0.2961268723011017
2.238065481185913 -1.3677300214767456 -0.1048881784081459
2.338212251663208 -3.3919641971588135 -0.041705675423145294
1.1065410375595093 0.9687035083770752 -0.11316057294607162
3.912179708480835 1.166271448135376 -0.32200250029563904
4.142892837524414 -0.5623500943183899 -0.27622824907302856
2.241590976715088 -1.3811942338943481 -0.10390914976596832
2.314497709274292 -3.384038209915161 -0.03720990940928459
1.1064141988754272 0.9611133933067322 -0.11405596137046814
3.916520833969116 1.1512093544006348 -0.3234274685382843
2.240818500518799 -1.3920750617980957 -0.1022646576166153
2.3077147006988525 -3.400803565979004 -0.03299684077501297
3.920604944229126 1.1368153095245361 -0.3248524069786072
4.583135604858398 -0.6571742296218872 -0.3042786121368408
2.248464584350586 -1.4082727432250977 -0.10099354386329651
2.2924630641937256 -3.4051220417022705 -0.027941633015871048
3.92931866645813 1.1237457990646362 -0.3281022906303406
4.595452308654785 -0.6761388778686523 -0.3060729503631592
2.255728006362915 -1.4249101877212524 -0.1010984554886818
2.285533905029297 -3.4218358993530273 -0.02441875822842121
0.8050000667572021 0.6843822598457336 -0.08482643961906433
3.943143367767334 1.1113386154174805 -0.32961758971214294
4.602809906005859 -0.6944661736488342 -0.3067304790019989
2.2632224559783936 -1.4412764310836792 -0.09885666519403458
2.2680656909942627 -3.421480894088745 -0.019344285130500793
0.8075421452522278 0.6812189221382141 -0.08611726015806198
3.9421656131744385 1.095482587814331 -0.3320731222629547
4.600162506103516 -0.7121427655220032 -0.3059180676937103
2.2663626670837402 -1.4549790620803833 -0.09828473627567291
2.24727463722229 -3.417248249053955 -0.01641826704144478
0.8061549663543701 0.6750069856643677 -0.08662863820791245
3.955843925476074 1.082938551902771 -0.33431369066238403
4.612356662750244 -0.7313507795333862 -0.30608662962913513
2.2778372764587402 -1.4741629362106323 -0.09759348630905151
2.2402069568634033 -3.433849811553955 -0.012164927087724209
0.8123853802680969 0.6751741766929626 -0.0881454348564148
3.945127010345459 1.0644769668579102 -0.3359478712081909
4.6145172119140625 -0.7490417957305908 -0.307229608297348
2.27663254737854 -1.4852508306503296 -0.09682437032461166
2.227611780166626 -3.4420461654663086 -0.007871429435908794
0.8337838053703308 0.6882965564727783 -0.09097915142774582
3.885923147201538 1.034690499305725 -0.33202558755874634
4.626693248748779 -0.7676034569740295 -0.30739468336105347
2.2795796394348145 -1.4991130828857422 -0.0952756255865097
2.2014784812927246 -3.429155111312866 -0.003556107636541128
3.860835075378418 1.0121510028839111 -0.3309502601623535
4.633739948272705 -0.7862343192100525 -0.3072284460067749
2.2907848358154297 -1.5185383558273315 -0.09405490010976791
2.170095682144165 -3.4076802730560303 0.0007051129941828549
0.9585870504379272 0.7793003916740417 -0.10677947849035263
3.8405187129974365 0.9903656244277954 -0.3316533863544464
4.645240306854248 -0.8073828816413879 -0.309029757976532
2.293567657470703 -1.5325130224227905 -0.0924711748957634
2.1816227436065674 -3.4536542892456055 0.004277801141142845
0.9652404189109802 0.7788508534431458 -0.10829243063926697
3.834181547164917 0.9744704961776733 -0.3322010338306427
4.652271747589111 -0.8253452777862549 -0.3088591396808624
2.3004097938537598 -1.5493104457855225 -0.09152154624462128
0.9719170331954956 0.7783739566802979 -0.10959666967391968
3.8472816944122314 0.9628018736839294 -0.33442220091819763
4.654178142547607 -0.8432903289794922 -0.3083597421646118
2.3030245304107666 -1.5633715391159058 -0.09039391577243805
0.9982190728187561 0.7931662797927856 -0.11333964765071869
3.8703536987304688 0.9520826935768127 -0.33749401569366455
4.670431613922119 -0.8656133413314819 -0.3088318407535553
2.3138153553009033 -1.5831165313720703 -0.08957512676715851
2.196594715118408 -3.562150001525879 0.016799621284008026
1.059679627418518 0.8356839418411255 -0.12139396369457245
3.6606943607330322 0.8856151700019836 -0.3215613067150116
4.681728363037109 -0.8863144516944885 -0.3106366991996765
2.32450532913208 -1.6029701232910156 -0.08824258297681808
1.0780247449874878 0.8443682789802551 -0.12461979687213898
3.6684021949768066 0.8746132850646973 -0.32264482975006104
4.624664783477783 -0.8930816054344177 -0.3054145574569702
2.33479642868042 -1.6233302354812622 -0.08688206970691681
3.671513319015503 0.8604696989059448 -0.32527756690979004
4.401315212249756 -0.8650992512702942 -0.29163846373558044
2.332948684692383 -1.634762167930603 -0.08604038506746292
3.6793856620788574 0.8481004238128662 -0.32702532410621643
4.368658065795898 -0.876116156578064 -0.28891438245773315
2.3392372131347656 -1.6519851684570312 -0.0844939723610878
1.1501721143722534 -1.927901268005371 0.018023820593953133
3.7065351009368896 0.8400634527206421 -0.3318358063697815
4.365367889404297 -0.8921120166778564 -0.2896920442581177
2.3454060554504395 -1.6692588329315186 -0.08393146842718124
1.0972627401351929 -1.8546311855316162 0.01955789141356945
3.7629857063293457 0.8376796841621399 -0.33931127190589905
4.3618011474609375 -0.9096388816833496 -0.28891438245773315
2.359625816345215 -1.692442774772644 -0.08263280987739563
1.1005690097808838 -1.875874400138855 0.021637361496686935
4.033580780029297 0.8824130892753601 -0.3641432225704193
4.387884616851807 -0.9310728907585144 -0.2908555865287781
2.3534417152404785 -1.7011051177978516 -0.08111236244440079
1.114121675491333 -1.914252758026123 0.024354705587029457
4.036814212799072 0.8668919801712036 -0.36558446288108826
2.3674471378326416 -1.7244740724563599 -0.07925445586442947
1.0421092510223389 -1.8057140111923218 0.025108572095632553
4.034715175628662 0.8509832620620728 -0.3694617748260498
4.722060680389404 -1.0382122993469238 -0.31350284814834595
2.36918044090271 -1.7390631437301636 -0.07901200652122498
1.10251784324646 -1.9266637563705444 0.028671473264694214
1.0294139385223389 0.7586721181869507 -0.1262868046760559
4.033012390136719 0.8344626426696777 -0.36973434686660767
4.7229084968566895 -1.0574262142181396 -0.31382638216018677
2.3829267024993896 -1.7626292705535889 -0.07761465013027191
1.0658268928527832 -1.8784841299057007 0.030158307403326035
1.0239179134368896 0.74912029504776 -0.1266326755285263
4.040670394897461 0.8206149935722351 -0.373060017824173
4.738514423370361 -1.0791734457015991 -0.31427234411239624
2.38449764251709 -1.7773497104644775 -0.07631924003362656
1.0540190935134888 -1.8736398220062256 0.03189472109079361
1.030556321144104 0.748193621635437 -0.12868526577949524
4.057967662811279 0.8093889951705933 -0.37657836079597473
4.7440876960754395 -1.0987480878829956 -0.31746745109558105
2.3979713916778564 -1.8011023998260498 -0.07591371983289719
1.0422605276107788 -1.8687329292297363 0.0336136594414711
1.0896841287612915 0.7850379347801208 -0.13712921738624573
4.060925006866455 0.7930422425270081 -0.37946704030036926
4.754403114318848 -1.1203892230987549 -0.31844326853752136
2.403331756591797 -1.8189446926116943 -0.07524118572473526
0.9942643642425537 -1.7981386184692383 0.034071631729602814
1.0559839010238647 0.7548956871032715 -0.134370818734169
4.0680952072143555 0.7804467082023621 -0.3835386633872986
4.774471282958984 -1.1436054706573486 -0.3209265172481537
2.4125781059265137 -1.8398891687393188 -0.0741516575217247
0.963928759098053 -1.7577375173568726 0.034992072731256485
1.0557177066802979 0.7549839019775391 -0.13595660030841827
4.06254243850708 0.7793814539909363 -0.3902980387210846
4.759419918060303 -1.1400002241134644 -0.3276360332965851
2.4081876277923584 -1.8372056484222412 -0.07878749817609787
0.9780548214912415 -1.7842351198196411 0.033740028738975525
1.0731539726257324 0.7734137773513794 -0.13809938728809357
4.049754619598389 0.7923284769058228 -0.3907991647720337
4.753519058227539 -1.1201808452606201 -0.33208245038986206
2.3988871574401855 -1.8162394762039185 -0.0819435566663742
0.9773547053337097 -1.7675572633743286 0.030318722128868103
1.0903124809265137 0.7921583652496338 -0.1404600292444229
4.056311130523682 0.8097947239875793 -0.39318588376045227
4.747589111328125 -1.1004321575164795 -0.3356570601463318
2.385455369949341 -1.7923529148101807 -0.08542917668819427
1.02037513256073 -1.829493522644043 0.02851954475045204
1.0633841753005981 0.7785646915435791 -0.1366601586341858
4.058193683624268 0.825648844242096 -0.3936590254306793
4.736771583557129 -1.0796462297439575 -0.33801817893981934
2.3759093284606934 -1.771593451499939 -0.08796041458845139
1.0365756750106812 -1.8433849811553955 0.025838958099484444
1.0164624452590942 0.7502225637435913 -0.12988504767417908
4.021234512329102 0.8327576518058777 -0.3896302580833435
4.726107597351074 -1.0581424236297607 -0.33951297402381897
2.3742763996124268 -1.7568720579147339 -0.09075680375099182
1.0828042030334473 -1.9091824293136597 0.024134797975420952
4.037205696105957 0.8529807329177856 -0.3929597735404968
4.7151665687561035 -1.0375592708587646 -0.3409919738769531
2.3685503005981445 -1.739236831665039 -0.09286049753427505
1.040158748626709 -1.8184266090393066 0.020475877448916435
1.0549672842025757 0.7903656959533691 -0.13412965834140778
4.034337520599365 0.8670967221260071 -0.3915193974971771
2.3586738109588623 -1.7187137603759766 -0.09528503566980362
1.1017930507659912 -1.9099009037017822 0.018857179209589958
1.0640676021575928 0.8032893538475037 -0.1344846785068512
3.9919261932373047 0.8747606873512268 -0.3877411484718323
4.3564677238464355 -0.9252010583877563 -0.31845876574516296
2.356804132461548 -1.7041617631912231 -0.09698916971683502
1.0886822938919067 -1.8712947368621826 0.01587013527750969
3.7168939113616943 0.8281000852584839 -0.3599642813205719
4.355051517486572 -0.9074380993843079 -0.3188786208629608
2.3507702350616455 -1.686712622642517 -0.09951913356781006
3.7186882495880127 0.8428179025650024 -0.3604348301887512
4.363069534301758 -0.8924356698989868 -0.32156792283058167
2.3443472385406494 -1.669738531112671 -0.10201758146286011
1.3362178802490234 -2.259420871734619 0.012828119099140167
3.725248098373413 0.8593565225601196 -0.36004140973091125
4.371090412139893 -0.8773974776268005 -0.32348427176475525
2.3387279510498047 -1.6516255140304565 -0.103485107421875
3.6978414058685303 0.8673208355903625 -0.35769739747047424
4.403617858886719 -0.8663501739501953 -0.32800528407096863
2.3318443298339844 -1.6352022886276245 -0.10542873293161392
1.0730289220809937 0.8413621187210083 -0.13273665308952332
3.6849205493927 0.8792312741279602 -0.35543742775917053
4.680782318115234 -0.9030711650848389 -0.35091060400009155
2.321903944015503 -1.6143664121627808 -0.10715679079294205
1.011450171470642 0.7990818023681641 -0.12434522807598114
3.9527273178100586 0.9584563970565796 -0.3801734149456024
4.664402008056641 -0.8821911215782166 -0.3502708673477173
2.3109989166259766 -1.5948466062545776 -0.1088498905301094
0.9772769808769226 0.7781969904899597 -0.11985035240650177
3.9828529357910156 0.9819686412811279 -0.38343071937561035
4.647932529449463 -0.8614433407783508 -0.3496241867542267
2.308520555496216 -1.5806770324707031 -0.11041579395532608
1.0016766786575317 0.8036430478096008 -0.12207215279340744
3.9841861724853516 0.9978018999099731 -0.38246238231658936
4.651025295257568 -0.8435575366020203 -0.3520992398262024
2.3018040657043457 -1.563717246055603 -0.11273840069770813
0.971675455570221 0.7854443192481995 -0.1181059330701828
3.9708521366119385 1.0099436044692993 -0.3815351724624634
4.634387969970703 -0.8230069279670715 -0.351435124874115
2.290883779525757 -1.5440572500228882 -0.11385751515626907
0.9417462944984436 0.767248809337616 -0.11332815885543823
3.967073678970337 1.0252163410186768 -0.3801049292087555
4.632400035858154 -0.805151104927063 -0.3518834412097931
2.2881720066070557 -1.5300633907318115 -0.11488699913024902
3.9634177684783936 1.039783239364624 -0.3786746561527252
4.625383377075195 -0.785646915435791 -0.35441261529922485
2.2728495597839355 -1.5077916383743286 -0.11670078337192535
2.163501501083374 -3.3999440670013428 -0.023211004212498665
0.8136699199676514 0.6724089980125427 -0.09699171036481857
3.9593958854675293 1.0549938678741455 -0.3786746561527252
4.6182732582092285 -0.7670348286628723 -0.35529351234436035
2.278257369995117 -1.4993829727172852 -0.11955694854259491
2.200228452682495 -3.4298410415649414 -0.02844863384962082
0.7996554970741272 0.6660114526748657 -0.09489268064498901
3.9511969089508057 1.0668545961380005 -0.3767859637737274
4.61115026473999 -0.7484952211380005 -0.35535213351249695
2.271136999130249 -1.4827959537506104 -0.12032022327184677
2.215482234954834 -3.4259252548217773 -0.03275598585605621
0.8051373958587646 0.675111711025238 -0.09488384425640106
3.9519991874694824 1.0833690166473389 -0.37581393122673035
4.6040802001953125 -0.729214608669281 -0.3554072082042694
2.2681007385253906 -1.4689853191375732 -0.12176361680030823
2.2280044555664062 -3.4177517890930176 -0.03702839836478233
0.8103165030479431 0.684528112411499 -0.09504269808530807
3.943331003189087 1.0965477228164673 -0.37392863631248474
4.601734161376953 -0.7115637063980103 -0.3558398187160492
2.2691588401794434 -1.457892894744873 -0.12436305731534958
2.2432353496551514 -3.413700819015503 -0.04206430912017822
0.8378337621688843 0.7138092517852783 -0.0976518988609314
3.929182767868042 1.110365390777588 -0.3723061978816986
4.589337348937988 -0.6924334764480591 -0.3571270704269409
2.253854990005493 -1.4353110790252686 -0.125077024102211
2.261814832687378 -3.4133450984954834 -0.047884631901979446
3.9303910732269287 1.1247947216033936 -0.3713332414627075
4.586968898773193 -0.6740727424621582 -0.3575526773929596
2.245844602584839 -1.4197640419006348 -0.12669435143470764
2.273097276687622 -3.405789852142334 -0.05145793408155441
1.0327168703079224 0.8923613429069519 -0.11868874728679657
3.9168009757995605 1.1364535093307495 -0.369005024433136
4.569607734680176 -0.6544204354286194 -0.3568204939365387
2.238264560699463 -1.403516411781311 -0.12782436609268188
2.2855281829833984 -3.397381067276001 -0.056460484862327576
1.055626392364502 0.9192605018615723 -0.12098804116249084
3.907693386077881 1.1500966548919678 -0.36784353852272034
4.162006855010986 -0.5804880857467651 -0.3270380198955536
2.234816551208496 -1.389968752861023 -0.12963782250881195
2.3063480854034424 -3.4013445377349854 -0.060970842838287354
1.0822885036468506 0.9494757652282715 -0.12317616492509842
3.9035747051239014 1.1644480228424072 -0.3664216101169586
4.292463302612305 -0.5818895697593689 -0.3393927216529846
2.231318235397339 -1.376476764678955 -0.13097618520259857
2.3272178173065186 -3.405186653137207 -0.06623239815235138
1.0754797458648682 0.9498323202133179 -0.12149783968925476
3.8991966247558594 1.1794649362564087 -0.3649996519088745
4.551549434661865 -0.6000310182571411 -0.35970163345336914
2.2277703285217285 -1.3630409240722656 -0.13184471428394318
2.339642286300659 -3.3965752124786377 -0.07055149227380753
1.0869439840316772 0.9670714139938354 -0.12216964364051819
3.899670124053955 1.1952264308929443 -0.3647339940071106
4.54871129989624 -0.5827034115791321 -0.36011144518852234
2.245438575744629 -1.362565517425537 -0.1353515386581421
2.352024555206299 -3.3879034519195557 -0.0755903422832489
1.072171926498413 0.961329460144043 -0.11965785175561905
3.8951730728149414 1.2102288007736206 -0.3633102476596832
4.5508527755737305 -0.5652256011962891 -0.36091184616088867
2.2634289264678955 -1.3616188764572144 -0.13750657439231873
2.360924482345581 -3.375509738922119 -0.07981240749359131
3.8813910484313965 1.2215639352798462 -0.36029255390167236
4.5379228591918945 -0.54673832654953 -0.36133044958114624
2.264012575149536 -1.350693702697754 -0.13954730331897736
2.3761024475097656 -3.3708372116088867 -0.08494789153337479
3.8911232948303223 1.2403193712234497 -0.36161550879478455
4.520122528076172 -0.5269938111305237 -0.36054858565330505
2.2779276371002197 -1.3466260433197021 -0.14192332327365875
2.3895435333251953 -3.3611721992492676 -0.09070616960525513
3.8770322799682617 1.2522473335266113 -0.35860028862953186
4.512054920196533 -0.5092979669570923 -0.36055126786231995
2.287069320678711 -1.340742588043213 -0.14404195547103882
2.4047017097473145 -3.3563759326934814 -0.09513995796442032
0.7763041853904724 0.7168547511100769 -0.0840887799859047
3.8678016662597656 1.2649396657943726 -0.35674145817756653
4.513891220092773 -0.49275702238082886 -0.36055126786231995
2.4081592559814453 -3.335312843322754 -0.09838442504405975
0.7774901390075684 0.7229942679405212 -0.08374423533678055
3.8583643436431885 1.278273582458496 -0.3541766405105591
4.500691890716553 -0.4738360047340393 -0.3617335855960846
4.665907382965088 -2.6916916370391846 -0.3002168834209442
2.4220733642578125 -3.331252336502075 -0.10353598743677139
0.7785260081291199 0.7292967438697815 -0.08320650458335876
3.8537702560424805 1.2924458980560303 -0.3527578115463257
4.497439861297607 -0.45683327317237854 -0.3613351881504059
4.645225524902344 -2.657116651535034 -0.3020053207874298
2.4371554851531982 -3.3262951374053955 -0.1079799085855484
0.7686489224433899 0.7253519296646118 -0.0815066248178482
3.849181652069092 1.3066211938858032 -0.35062944889068604
4.6552557945251465 -2.6391825675964355 -0.30480730533599854
2.4403560161590576 -3.305184841156006 -0.11188971251249313
0.7660364508628845 0.7282129526138306 -0.08058430999517441
3.85355806350708 1.3246299028396606 -0.3514888286590576
4.682069301605225 -2.6317546367645264 -0.3106319010257721
2.5174143314361572 -3.3847622871398926 -0.12003801763057709
0.7707436084747314 0.7378264665603638 -0.08041346073150635
3.802259683609009 1.3211112022399902 -0.34508436918258667
2.0648033618927 -0.187185138463974 -0.16717560589313507
4.695756912231445 -2.6168460845947266 -0.3165501356124878
0.7644951939582825 0.7372336387634277 -0.07911090552806854
2.005925178527832 -0.17408467829227448 -0.1623532474040985
4.7226457595825195 -2.60919189453125 -0.32055091857910156
2.6052498817443848 -3.449761390686035 -0.13207906484603882
0.7654236555099487 0.7435625791549683 -0.07836486399173737
3.1025443077087402 1.104156255722046 -0.27942919731140137
2.0114879608154297 -0.16714175045490265 -0.16310738027095795
4.753917217254639 -2.6037721633911133 -0.324871689081192
2.617790937423706 -3.440077066421509 -0.13660600781440735
0.7484754920005798 0.7324497103691101 -0.07616901397705078
2.007117986679077 -0.15866857767105103 -0.16340747475624084
4.781677722930908 -2.594078302383423 -0.3298662006855011
2.6345181465148926 -3.433370590209961 -0.14205129444599152
0.7532045245170593 0.7419831156730652 -0.07578729093074799
3.6936163902282715 1.3458267450332642 -0.3301090896129608
2.012657403945923 -0.15203902125358582 -0.1634596586227417
4.803735733032227 -2.5843827724456787 -0.3336302638053894
2.645796537399292 -3.4244959354400635 -0.14658313989639282
0.7326896786689758 0.7273383140563965 -0.07327911257743835
3.810267448425293 1.4041709899902344 -0.3402784764766693
2.0081734657287598 -0.1442999690771103 -0.16375887393951416
4.830531120300293 -2.5760138034820557 -0.3396287262439728
2.661320209503174 -3.418616533279419 -0.15053318440914154
0.7441895008087158 0.7441895008087158 -0.07340939342975616
3.7910079956054688 1.4136303663253784 -0.3369074761867523
2.0136606693267822 -0.13727761805057526 -0.164164200425148
4.844193935394287 -2.5605404376983643 -0.3428073227405548
2.6829681396484375 -3.4204866886138916 -0.1563652604818344
0.7412498593330383 0.7472250461578369 -0.07230723649263382
2.00921630859375 -0.12852168083190918 -0.16411025822162628
4.871903896331787 -2.5502188205718994 -0.3478952944278717
2.699674129486084 -3.413477897644043 -0.1611025035381317
0.7247974872589111 0.7355021834373474 -0.07021559774875641
3.7669029235839844 1.436180830001831 -0.3314412534236908
1.9947503805160522 -0.12025698274374008 -0.16289161145687103
4.889029026031494 -2.5385637283325195 -0.3514111638069153
2.7077598571777344 -3.4004645347595215 -0.16546964645385742
0.7358396649360657 0.7527276873588562 -0.07047013193368912
3.770313024520874 1.4555987119674683 -0.3301445245742798
2.0101044178009033 -0.11379004269838333 -0.16411025822162628
4.92564058303833 -2.532522201538086 -0.3562209904193878
2.727534055709839 -3.3972220420837402 -0.17041242122650146
0.7333735227584839 0.7551987171173096 -0.06973522901535034
3.788788318634033 1.477186918258667 -0.33076047897338867
2.005492687225342 -0.105805404484272 -0.16440507769584656
4.960843563079834 -2.528766632080078 -0.36300578713417053
2.7418112754821777 -3.3919029235839844 -0.1751752644777298
0.7341053485870361 0.7615171670913696 -0.06914270669221878
2.0058670043945312 -0.09845419228076935 -0.16440507769584656
4.9841461181640625 -2.5154898166656494 -0.3669049143791199
2.7552878856658936 -3.380725622177124 -0.17974251508712769
0.7210096716880798 0.7534396648406982 -0.06707224249839783
2.0111796855926514 -0.09097540378570557 -0.16516441106796265
5.010016918182373 -2.5077359676361084 -0.3731057643890381
2.7695109844207764 -3.3752596378326416 -0.18528269231319427
0.7286096811294556 0.7669897079467773 -0.06674258410930634
2.0065205097198486 -0.08339650183916092 -0.16475558280944824
5.024455547332764 -2.489790916442871 -0.3744167387485504
2.789281129837036 -3.371661424636841 -0.1902891993522644
0.7261019349098206 0.769443690776825 -0.06581936776638031
2.0018067359924316 -0.07655176520347595 -0.16434676945209503
5.055327892303467 -2.483147382736206 -0.37903136014938354
2.793945550918579 -3.354588031768799 -0.19366459548473358
0.7163509726524353 0.7649739980697632 -0.06446679681539536
1.9920680522918701 -0.06852025538682938 -0.16422490775585175
5.073066234588623 -2.4688220024108887 -0.38462644815444946
2.8253540992736816 -3.3671257495880127 -0.19959715008735657
0.7067844271659851 0.7603244781494141 -0.06294694542884827
3.7142598628997803 1.5445761680603027 -0.31588035821914673
1.9972864389419556 -0.061371538788080215 -0.16463546454906464
5.09987211227417 -2.458789110183716 -0.38895124197006226
2.8278660774230957 -3.3451433181762695 -0.20350381731987
0.7108142375946045 0.7703019976615906 -0.062271688133478165
1.9975260496139526 -0.05300481244921684 -0.16463546454906464
5.123022079467773 -2.4446539878845215 -0.3929515480995178
2.8540902137756348 -3.3488047122955322 -0.2090398073196411
0.7113941311836243 0.7766225337982178 -0.06164915859699249
2.0126523971557617 -0.046024929732084274 -0.1658671498298645
5.1451640129089355 -2.43210768699646 -0.39895397424697876
2.8688464164733887 -3.3424150943756104 -0.2146587073802948
0.7054913640022278 0.7753248810768127 -0.060442227870225906
2.0377047061920166 -0.039837490767240524 -0.16791994869709015
5.1850481033325195 -2.428853988647461 -0.404399573802948
2.8771066665649414 -3.3284597396850586 -0.21825477480888367
0.6959877610206604 0.7705352902412415 -0.05896049737930298
2.0378425121307373 -0.03201299160718918 -0.16791994869709015
5.202771186828613 -2.413942337036133 -0.40810728073120117
2.895719528198242 -3.3252792358398438 -0.22259825468063354
0.6931998133659363 0.7731265425682068 -0.05787312984466553
1.8271913528442383 0.7990399599075317 -0.1513497531414032
2.0379462242126465 -0.024543708190321922 -0.16791994869709015
5.2385783195495605 -2.407261848449707 -0.4132552146911621
2.914318561553955 -3.3219735622406006 -0.22773025929927826
0.6906655430793762 0.7754584550857544 -0.05696694180369377
1.8150612115859985 0.8020514845848083 -0.14955401420593262
2.0380256175994873 -0.016718393191695213 -0.16791994869709015
5.256731033325195 -2.3911995887756348 -0.4159860908985138
2.925158977508545 -3.312110424041748 -0.23235784471035004
0.6812502145767212 0.7705551385879517 -0.05516264960169792
1.812204360961914 0.8087409734725952 -0.1481686234474182
2.0081746578216553 -0.009112870320677757 -0.16545657813549042
5.259885787963867 -2.371614694595337 -0.41864797472953796
2.947126865386963 -3.312436103820801 -0.23624087870121002
0.6787227988243103 0.7728459239006042 -0.05426507815718651
1.8092985153198242 0.8154094219207764 -0.14712952077388763
1.9982284307479858 -0.0017437835922464728 -0.16463546454906464
5.250128269195557 -2.3440985679626465 -0.42021122574806213
2.962385416030884 -3.30511212348938 -0.24192960560321808
0.6791975498199463 0.7791275978088379 -0.05362652614712715
1.7925628423690796 0.8161624073982239 -0.14567674696445465
1.9882255792617798 0.005899201612919569 -0.16416135430335999
5.231790542602539 -2.310767412185669 -0.4230157732963562
2.948652982711792 -3.263339042663574 -0.24512608349323273
0.6665652990341187 0.7703186869621277 -0.05196038633584976
1.9981609582901 0.01255498081445694 -0.16498421132564545
5.2122802734375 -2.280440092086792 -0.42278891801834106
2.9223639965057373 -3.2127623558044434 -0.24585562944412231
0.6670262813568115 0.776585578918457 -0.05114307999610901
1.8050546646118164 0.8371127247810364 -0.14506842195987701
1.9980980157852173 0.020227257162332535 -0.16498421132564545
5.206674098968506 -2.255286931991577 -0.42464834451675415
2.9036221504211426 -3.1687474250793457 -0.24706299602985382
0.6643401384353638 0.778942883014679 -0.050249695777893066
1.9980103969573975 0.02755051665008068 -0.16498421132564545
5.200953006744385 -2.23020601272583 -0.42649194598197937
2.8981411457061768 -3.1395857334136963 -0.24935701489448547
0.6613889932632446 0.7815408110618591 -0.04882019758224487
1.965693712234497 0.9295989274978638 -0.15586444735527039
2.0029072761535645 0.034960877150297165 -0.16504603624343872
5.186323642730713 -2.2003955841064453 -0.4275630712509155
2.882227897644043 -3.0994763374328613 -0.2521977424621582
0.6620346307754517 0.7875853180885315 -0.04816050082445145
1.9977761507034302 0.04254511371254921 -0.16463546454906464
5.175690650939941 -2.173534393310547 -0.42996862530708313
2.8661208152770996 -3.0595908164978027 -0.2534770965576172
0.6591755151748657 0.7900447845458984 -0.047083042562007904
1.9876439571380615 0.04961833357810974 -0.16381435096263885
5.169602870941162 -2.1487231254577637 -0.4317544400691986
2.8463056087493896 -3.016204357147217 -0.25510430335998535
1.2468104362487793 0.6067637801170349 -0.09696149080991745
1.9974393844604492 0.05718912184238434 -0.16428668797016144
5.159233570098877 -2.1212174892425537 -0.4321637749671936
2.8331191539764404 -2.980271816253662 -0.25654393434524536
0.6661105751991272 0.8103593587875366 -0.045983437448740005
1.9922245740890503 0.06469656527042389 -0.16387701034545898
5.139059543609619 -2.0909361839294434 -0.4327516257762909
2.823096990585327 -2.9480152130126953 -0.2596628665924072
1.1798657178878784 0.5849205851554871 -0.09046971797943115
1.991974115371704 0.0719979926943779 -0.16387701034545898
5.146478176116943 -2.0720019340515137 -0.4356565773487091
2.8025472164154053 -2.905165195465088 -0.2603286802768707
1.1690378189086914 0.5843901038169861 -0.08910002559423447
1.9917113780975342 0.07964722067117691 -0.16352912783622742
5.126468658447266 -2.0411062240600586 -0.4352341592311859
2.789177179336548 -2.869175672531128 -0.261568158864975
1.1355652809143066 0.5733665227890015 -0.085831418633461
1.9913491010665894 0.08694417774677277 -0.16422490775585175
5.115855693817139 -2.0131263732910156 -0.4365401268005371
2.7795281410217285 -2.836379289627075 -0.26377010345458984
2.0159335136413574 0.09542164206504822 -0.16592545807361603
5.103641986846924 -1.9888008832931519 -0.43878111243247986
2.767702579498291 -2.8056397438049316 -0.2659090757369995
1.1093262434005737 0.5701162219047546 -0.0828423723578453
2.035459041595459 0.10418043285608292 -0.16756422817707062
2.7567052841186523 -2.774080753326416 -0.2673025131225586
2.0400683879852295 0.11191462725400925 -0.16761735081672668
2.74198579788208 -2.7391159534454346 -0.2682982087135315
1.0963644981384277 0.5736529231071472 -0.08066795766353607
2.0495729446411133 0.12033120542764664 -0.1684349924325943
4.383558750152588 -1.6520386934280396 -0.381023108959198
2.737672805786133 -2.7148332595825195 -0.27028170228004456
1.0765548944473267 0.5685638785362244 -0.07851693034172058
2.034226655960083 0.126913383603096 -0.16685280203819275
4.371002674102783 -1.6281670331954956 -0.38184407353401184
2.719001531600952 -2.676623582839966 -0.27081412076950073
1.0745117664337158 0.5725314021110535 -0.07766696065664291
2.0387494564056396 0.1346988081932068 -0.16690415143966675
4.367464065551758 -1.6086450815200806 -0.38265281915664673
2.703587770462036 -2.6420083045959473 -0.27295464277267456
1.0680464506149292 0.5741223096847534 -0.07671374827623367
2.038217306137085 0.14252601563930511 -0.16690415143966675
4.354349613189697 -1.5857144594192505 -0.38424935936927795
2.699221134185791 -2.6175546646118164 -0.2747955322265625
1.0923025608062744 0.59233158826828 -0.07774046063423157
2.037710189819336 0.14999765157699585 -0.16654753684997559
4.355655193328857 -1.567273497581482 -0.384644091129303
2.6906611919403076 -2.5901856422424316 -0.27623263001441956
2.042144536972046 0.15785154700279236 -0.16659627854824066
4.333075523376465 -1.5412347316741943 -0.38376525044441223
2.6819374561309814 -2.562915086746216 -0.2776259779930115
2.0117197036743164 0.16327275335788727 -0.164164200425148
4.324403762817383 -1.5203183889389038 -0.38491806387901306
2.6802849769592285 -2.5426063537597656 -0.27973058819770813
2.0061707496643066 0.17022605240345 -0.16340747475624084
4.315835475921631 -1.498711109161377 -0.38685253262519836
2.6603362560272217 -2.505221366882324 -0.2805374562740326
1.9906381368637085 0.17660917341709137 -0.16184525191783905
4.307034492492676 -1.4779876470565796 -0.38717639446258545
2.6511123180389404 -2.478264570236206 -0.28179091215133667
1.985042929649353 0.18344801664352417 -0.16109372675418854
4.303240776062012 -1.4582411050796509 -0.38632920384407043
2.6458096504211426 -2.454338788986206 -0.2833920419216156
1.9843851327896118 0.19072501361370087 -0.1607457846403122
4.284743309020996 -1.434486746788025 -0.3865770995616913
2.6362717151641846 -2.427574872970581 -0.28456243872642517
1.0099470615386963 1.4039384126663208 -0.04317322000861168
1.9886252880096436 0.19884173572063446 -0.1607988327741623
4.285114288330078 -1.4171661138534546 -0.387726366519928
2.611859083175659 -2.3874640464782715 -0.2840885818004608
1.0280531644821167 1.4402137994766235 -0.04231845587491989
1.9878830909729004 0.20612908899784088 -0.1607988327741623
4.280795097351074 -1.3975257873535156 -0.3900143802165985
2.6019537448883057 -2.3609631061553955 -0.2851541340351105
1.0083465576171875 1.4236118793487549 -0.03989388048648834
1.9871420860290527 0.21341663599014282 -0.1604500114917755
4.266795635223389 -1.3756706714630127 -0.3898535370826721
2.595592975616455 -2.3379030227661133 -0.2865847945213318
0.9945260882377625 1.4150675535202026 -0.03743788227438927
1.9962984323501587 0.22215689718723297 -0.16019858419895172
4.257569789886475 -1.3554894924163818 -0.38855403661727905
2.585787296295166 -2.3111486434936523 -0.28756725788116455
0.9812674522399902 1.4060908555984497 -0.03531773015856743
