# .PCD v0.7 - Point Cloud Data file format
VERSION 0.7
FIELDS x y z
SIZE 4 4 4
TYPE F F F
COUNT 1 1 1
WIDTH 821
HEIGHT 1
VIEWPOINT 0 0 0 1 0 0 0
POINTS 821
DATA ascii
2.4434432983398438 -0.4031950831413269 -0.43845415115356445
4.95338249206543 -3.2773289680480957 -0.7766690850257874
2.4434592723846436 -3.8266141414642334 -0.2983766496181488
0.7948014736175537 0.6797847747802734 -0.17257791757583618
1.2732830047607422 0.3547884523868561 -0.24879887700080872
2.4546194076538086 -0.3953636586666107 -0.4406314492225647
4.97296667098999 -3.2641441822052 -0.7841954231262207
2.4626407623291016 -3.8256680965423584 -0.30538541078567505
0.7962303161621094 0.6858338117599487 -0.17284175753593445
1.2814942598342896 0.36190173029899597 -0.2506486773490906
2.4704806804656982 -0.3881923258304596 -0.44455859065055847
5.0052056312561035 -3.2591192722320557 -0.791632890701294
2.475745439529419 -3.8166873455047607 -0.3117377758026123
0.7901204824447632 0.6856316328048706 -0.17093488574028015
1.2706457376480103 0.3645918071269989 -0.24810676276683807
5.0378007888793945 -3.2528669834136963 -0.8011977672576904
2.5003960132598877 -3.823917865753174 -0.3194846212863922
0.7877588272094727 0.6886599063873291 -0.1696566790342331
1.278757095336914 0.3722394108772278 -0.2494865357875824
5.0365800857543945 -3.2259838581085205 -0.804431140422821
2.51692271232605 -3.81856369972229 -0.32542118430137634
0.7849780321121216 0.6920512318611145 -0.16874350607395172
1.2727950811386108 0.3755697011947632 -0.24787111580371857
5.023677825927734 -3.1893529891967773 -0.8066641688346863
2.5313119888305664 -3.8084888458251953 -0.33180657029151917
0.7791398763656616 0.6915096044540405 -0.16667494177818298
1.2668497562408447 0.3786275386810303 -0.24649155139923096
2.546473979949951 -3.803877353668213 -0.33776119351387024
0.7766866683959961 0.6944380402565002 -0.16594761610031128
1.2747011184692383 0.38679787516593933 -0.2480916976928711
4.432052135467529 -0.6102681159973145 -0.8009462356567383
4.596686363220215 -2.8700976371765137 -0.7442558407783508
2.5691637992858887 -3.80607533454895 -0.34527701139450073
0.7782003879547119 0.7004488706588745 -0.16545507311820984
1.2734671831130981 0.3912831246852875 -0.24739420413970947
4.419312000274658 -0.5912322998046875 -0.8006374835968018
4.513115406036377 -2.797159433364868 -0.7329960465431213
2.5843346118927 -3.8013055324554443 -0.3512679934501648
0.7717087864875793 0.7004793882369995 -0.16376517713069916
1.2720377445220947 0.396195650100708 -0.2469291388988495
4.431071758270264 -0.5762821435928345 -0.8031848669052124
4.5278706550598145 -2.7812092304229736 -0.7392448782920837
2.6070516109466553 -3.803229570388794 -0.3596543073654175
0.7694868445396423 0.7031307816505432 -0.1628556102514267
1.270700216293335 0.40089407563209534 -0.24623151123523712
4.536626815795898 -2.7659096717834473 -0.7429544925689697
2.6081063747406006 -3.777843475341797 -0.3629066050052643
0.7597591876983643 0.699368953704834 -0.16023066639900208
1.2738757133483887 0.40728068351745605 -0.24690669775009155
2.505647897720337 -0.30632323026657104 -0.4551035463809967
4.533833980560303 -2.740382432937622 -0.7464253902435303
2.584639072418213 -3.714656352996826 -0.3641031086444855
0.764581024646759 0.7090019583702087 -0.16049017012119293
1.2678288221359253 0.41071969270706177 -0.24483604729175568
2.4971110820770264 -0.2955525517463684 -0.4528903663158417
4.543623924255371 -2.7236127853393555 -0.7482745051383972
2.555060863494873 -3.6435883045196533 -0.3635253608226776
0.7620996236801147 0.7119138240814209 -0.1593981385231018
1.2616102695465088 0.4140644967556 -0.24370086193084717
2.4735493659973145 -0.28313741087913513 -0.44976264238357544
4.557154655456543 -2.709068775177002 -0.7545261383056641
0.759731113910675 0.7146836519241333 -0.15830594301223755
1.2647587060928345 0.4204840660095215 -0.2441382110118866
2.4598214626312256 -0.2724359333515167 -0.4475279748439789
4.562803745269775 -2.688769817352295 -0.7575191855430603
0.7500489950180054 0.7107753753662109 -0.15572340786457062
1.263330101966858 0.4251575469970703 -0.24344033002853394
2.4362967014312744 -0.2612251937389374 -0.44307941198349
4.563395023345947 -2.666632652282715 -0.7616384625434875
2.494760274887085 -3.4769458770751953 -0.36611878871917725
0.7475563883781433 0.7136319279670715 -0.15464121103286743
1.2618087530136108 0.43004631996154785 -0.2427423596382141
2.42261004447937 -0.24949772655963898 -0.4408353269100189
4.615492343902588 -2.674431324005127 -0.7724941968917847
2.491990089416504 -3.4476137161254883 -0.36992770433425903
0.7486169338226318 0.7199070453643799 -0.15429358184337616
1.2556177377700806 0.4333246052265167 -0.24115115404129028
2.4183409214019775 -0.24052996933460236 -0.441217303276062
4.633604526519775 -2.6612133979797363 -0.7795235514640808
2.454450845718384 -3.3695971965789795 -0.36838486790657043
0.742536187171936 0.719316303730011 -0.15247632563114166
1.2587850093841553 0.43958741426467896 -0.24134622514247894
2.4095325469970703 -0.22946518659591675 -0.43943101167678833
2.473585844039917 -3.3673789501190186 -0.3743700683116913
0.7402416467666626 0.7218672633171082 -0.15157409012317657
1.2480825185775757 0.4407438337802887 -0.23887206614017487
2.4053432941436768 -0.22059665620326996 -0.4389594495296478
2.4986815452575684 -3.3792407512664795 -0.38173598051071167
0.7412710189819336 0.7281907200813293 -0.1508485972881317
1.2557662725448608 0.44888773560523987 -0.23994983732700348
2.4061357975006104 -0.2117791473865509 -0.4389594495296478
4.285976409912109 -2.398297071456909 -0.7278738617897034
2.513744592666626 -3.37367582321167 -0.3873286247253418
0.7385441660881042 0.7311055660247803 -0.15012313425540924
1.2448176145553589 0.45037201046943665 -0.23794794082641602
2.4067018032073975 -0.20251941680908203 -0.4402240812778473
4.268345355987549 -2.3679304122924805 -0.7268837690353394
2.5078721046447754 -3.3401718139648438 -0.3896816372871399
0.7289612889289856 0.7269284725189209 -0.14761541783809662
1.2523590326309204 0.4587940573692322 -0.2390187382698059
2.4073758125305176 -0.1924242526292801 -0.4410671293735504
4.258995532989502 -2.3423707485198975 -0.7290283441543579
2.4921624660491943 -3.295229196548462 -0.39127057790756226
0.7299292683601379 0.7332491278648376 -0.1468806266784668
1.2553205490112305 0.46535369753837585 -0.23919978737831116
2.4130783081054688 -0.1835581213235855 -0.4415430724620819
4.254486083984375 -2.318657875061035 -0.7301863431930542
2.4918642044067383 -3.269855260848999 -0.3944079279899597
0.7273445725440979 0.7360284924507141 -0.14579710364341736
1.2538056373596191 0.4697766602039337 -0.2384987473487854
2.418671131134033 -0.17464548349380493 -0.4424404799938202
4.25391960144043 -2.2981672286987305 -0.7312278151512146
2.482320547103882 -3.2326858043670654 -0.3960452973842621
0.7284752726554871 0.7420786023139954 -0.1454058140516281
1.2567124366760254 0.47637656331062317 -0.2386719286441803
2.419034481048584 -0.16618576645851135 -0.4437101483345032
4.248961448669434 -2.2744555473327637 -0.7340320944786072
2.4846765995025635 -3.2113192081451416 -0.40026426315307617
0.7152307629585266 0.73446124792099 -0.14225509762763977
1.2549452781677246 0.4814770221710205 -0.23773358762264252
4.235769748687744 -2.2455649375915527 -0.733614981174469
2.4722084999084473 -3.169981002807617 -0.40125179290771484
0.7232262492179871 0.7476159334182739 -0.14322756230831146
1.2395994663238525 0.4805600643157959 -0.23442503809928894
4.238867282867432 -2.2282869815826416 -0.73536616563797
2.4608969688415527 -3.1339895725250244 -0.4026441276073456
0.7206017971038818 0.7503872513771057 -0.1419566422700882
4.233402729034424 -2.205648422241211 -0.7364223003387451
2.4597151279449463 -3.108957529067993 -0.40547704696655273
0.704257071018219 0.7387678027153015 -0.13836205005645752
4.370932102203369 -0.23366089165210724 -0.8017822504043579
4.218934535980225 -2.1784870624542236 -0.7367544174194336
2.445981740951538 -3.0684194564819336 -0.40620142221450806
0.7257707118988037 0.7664085626602173 -0.1417742222547531
1.1063956022262573 0.4434228837490082 -0.2082422375679016
4.366884708404541 -0.21663236618041992 -0.8008813858032227
4.218012809753418 -2.1575374603271484 -0.7385289072990417
2.44132924079895 -3.039659023284912 -0.40839070081710815
0.7194128036499023 0.7658289074897766 -0.1398250013589859
1.100253939628601 0.4458722770214081 -0.20655298233032227
4.3625617027282715 -0.19810275733470917 -0.8015050292015076
4.212212562561035 -2.135128974914551 -0.7395156025886536
2.442183017730713 -3.019075632095337 -0.4122503399848938
0.7102049589157104 0.7610687613487244 -0.13741587102413177
1.0941534042358398 0.4480758607387543 -0.20507687330245972
4.358205318450928 -0.18190093338489532 -0.8013637065887451
4.210973739624023 -2.1142170429229736 -0.7420807480812073
2.440394639968872 -2.9943530559539795 -0.4141843318939209
0.704138994216919 0.7601348161697388 -0.1356765180826187
1.092490792274475 0.4523010849952698 -0.20466414093971252
4.353957176208496 -0.16497913002967834 -0.8004602789878845
4.201272487640381 -2.0882723331451416 -0.7422448992729187
2.4299349784851074 -2.9571988582611084 -0.41579750180244446
0.7115287184715271 0.7737817168235779 -0.13633985817432404
1.0955358743667603 0.4582725763320923 -0.20448067784309387
4.364388465881348 -0.14859463274478912 -0.8022671937942505
4.208676815032959 -2.07183837890625 -0.7463388442993164
2.4181995391845703 -2.9210243225097656 -0.41731271147727966
0.7054563164710999 0.7728440761566162 -0.13441842794418335
1.0984054803848267 0.46443653106689453 -0.20470474660396576
4.350180149078369 -0.13139012455940247 -0.7995567917823792
4.216008186340332 -2.0562844276428223 -0.7479761838912964
2.4126932621002197 -2.892723321914673 -0.4185228645801544
0.7193809747695923 0.7939234375953674 -0.1362948715686798
1.1012771129608154 0.4706434905529022 -0.2047145813703537
4.350612163543701 -0.11620435863733292 -0.7995567917823792
4.249239444732666 -2.0541625022888184 -0.7568192481994629
2.4092085361480713 -2.8691484928131104 -0.42023786902427673
0.6935932636260986 0.7705837488174438 -0.130973219871521
1.0951176881790161 0.4727655351161957 -0.20324762165546417
4.3510260581970215 -0.09949839115142822 -0.7995567917823792
4.287548065185547 -2.0533289909362793 -0.7648501396179199
2.3964192867279053 -2.8337724208831787 -0.4208708703517914
0.6908703446388245 0.7732394337654114 -0.1297064870595932
1.0845205783843994 0.472688764333725 -0.20094846189022064
4.331694602966309 -0.08317279070615768 -0.7959429621696472
4.290457248687744 -2.0345065593719482 -0.7673710584640503
2.406454563140869 -2.8245763778686523 -0.4254046678543091
0.6947062611579895 0.7832921743392944 -0.12985137104988098
1.0964452028274536 0.4826759099960327 -0.20262400805950165
4.312036991119385 -0.06623334437608719 -0.7938345670700073
4.315145492553711 -2.0268750190734863 -0.7747225165367126
2.3905715942382812 -2.7851901054382324 -0.4253333806991577
0.6788177490234375 0.7710521221160889 -0.12613476812839508
1.08116614818573 0.48091399669647217 -0.19950294494628906
4.3368449211120605 -0.04995907470583916 -0.7983604073524475
4.358325004577637 -2.026766538619995 -0.7836551666259766
2.3808841705322266 -2.7534193992614746 -0.4269629716873169
0.6698232293128967 0.7659417390823364 -0.12367304414510727
1.0839359760284424 0.48714014887809753 -0.19950461387634277
4.332087516784668 -0.03326869755983353 -0.7974552512168884
4.378672122955322 -2.016742467880249 -0.7894346117973328
2.38649582862854 -2.7414815425872803 -0.42955249547958374
0.6668416261672974 0.7687379121780396 -0.12242982536554337
1.0822697877883911 0.4911671578884125 -0.19867491722106934
4.322348594665527 -0.016596708446741104 -0.7956449389457703
2.379763126373291 -2.713599681854248 -0.4316583275794983
0.6775956749916077 0.7858336567878723 -0.1239132434129715
1.0758460760116577 0.4936968982219696 -0.19702421128749847
4.292876243591309 0.0 -0.7902138829231262
2.3762459754943848 -2.689638614654541 -0.43304190039634705
0.6620423793792725 0.7732371687889099 -0.12012050300836563
1.074296474456787 0.49730509519577026 -0.1964043825864792
4.312652111053467 0.016559477895498276 -0.7930818796157837
3.57574462890625 -1.5980101823806763 -0.64908766746521
2.370164394378662 -2.661149263381958 -0.4344012439250946
0.6527056097984314 0.7682838439941406 -0.11806890368461609
1.0635654926300049 0.49730533361434937 -0.19394806027412415
4.317203044891357 0.03240085393190384 -0.7954933047294617
3.6131181716918945 -1.5980967283248901 -0.6568788290023804
2.3558883666992188 -2.6266028881073 -0.43447715044021606
0.650381326675415 0.7704402804374695 -0.11683718115091324
1.070926547050476 0.5050817728042603 -0.1949579268693924
4.317340850830078 0.04747355356812477 -0.7939862012863159
3.6677684783935547 -1.6077477931976318 -0.6679965257644653
2.348106861114502 -2.5996134281158447 -0.43509042263031006
0.6508346796035767 0.7767351865768433 -0.11617476493120193
1.082465648651123 0.5156140923500061 -0.1965578943490982
4.302375793457031 0.06383170932531357 -0.791273295879364
3.7776482105255127 -1.638649821281433 -0.6890736818313599
2.343454360961914 -2.5763261318206787 -0.43688058853149414
0.6448841094970703 0.7753888368606567 -0.11454923450946808
1.0494728088378906 0.5048516392707825 -0.19008274376392365
4.316709995269775 0.0806240364909172 -0.7947397828102112
2.3357114791870117 -2.5489819049835205 -0.43859660625457764
0.6421390175819397 0.7778698205947876 -0.11314096301794052
1.0743414163589478 0.5216721296310425 -0.19429004192352295
4.3068132400512695 0.09698320180177689 -0.7914257645606995
4.62828254699707 -1.966496229171753 -0.8496429324150085
2.3346335887908936 -2.52913236618042 -0.4403134882450104
0.648819625377655 0.7918564081192017 -0.11356237530708313
1.0724518299102783 0.5258530378341675 -0.19345623254776
4.2618913650512695 0.11234590411186218 -0.784782886505127
4.721733570098877 -1.9848339557647705 -0.8681515455245972
2.3334414958953857 -2.5093250274658203 -0.4419986605644226
0.6462648510932922 0.7940953969955444 -0.11249027401208878
1.044093370437622 0.5167034864425659 -0.18784654140472412
4.291079998016357 0.12885548174381256 -0.7894646525382996
4.746760368347168 -1.9749137163162231 -0.8741858005523682
2.325303792953491 -2.482267379760742 -0.44295617938041687
0.6556463241577148 0.8122612237930298 -0.11339931935071945
1.0289702415466309 0.5141472816467285 -0.18465566635131836
4.290553569793701 0.14533105492591858 -0.7894646525382996
4.689795017242432 -1.9301220178604126 -0.8668778538703918
2.330610752105713 -2.4697272777557373 -0.4464595317840576
1.0227851867675781 0.5157500505447388 -0.18306352198123932
4.295015335083008 0.1619950234889984 -0.7896187901496887
4.34498405456543 -1.7696176767349243 -0.8044660091400146
2.3120031356811523 -2.432088851928711 -0.44475969672203064
0.7431690096855164 0.933622419834137 -0.12668383121490479
1.021064043045044 0.5193604826927185 -0.18246373534202576
4.289448261260986 0.17828123271465302 -0.7887153625488281
4.346785068511963 -1.750922441482544 -0.8060747981071472
2.313722610473633 -2.4161019325256348 -0.44694918394088745
0.7460027933120728 0.9442645907402039 -0.1262694001197815
1.0148731470108032 0.5209023952484131 -0.18088090419769287
4.112009525299072 0.18672524392604828 -0.7554726004600525
4.330065727233887 -1.7248934507369995 -0.8050909042358398
2.308366298675537 -2.3928894996643066 -0.4489433467388153
0.739549458026886 0.9431823492050171 -0.1244925782084465
1.0173627138137817 0.5271254777908325 -0.18086405098438263
4.2992987632751465 -1.6944055557250977 -0.8007022738456726
2.306433916091919 -2.373414993286133 -0.4504021108150482
0.7361804842948914 0.9460060000419617 -0.12302817404270172
1.0022481679916382 0.5244081616401672 -0.17753824591636658
3.747164249420166 0.19900386035442352 -0.6880255937576294
4.296201229095459 -1.6741552352905273 -0.8014093637466431
2.2974050045013428 -2.3468520641326904 -0.4510435163974762
0.7272107601165771 0.9405614733695984 -0.12055476754903793
0.9962705373764038 0.5254961252212524 -0.17578010261058807
4.279223442077637 -1.6486413478851318 -0.7995295524597168
2.291747808456421 -2.323972225189209 -0.45174047350883484
0.7299050092697144 0.9512307047843933 -0.12009882926940918
1.0030759572982788 0.5340188145637512 -0.17652873694896698
4.266055583953857 0.25868117809295654 -0.7828637957572937
4.303255558013916 -1.6398121118545532 -0.8053759932518005
2.292935609817505 -2.3081934452056885 -0.4537767767906189
0.7325437068939209 0.9619492888450623 -0.11940736323595047
0.9925140142440796 0.5330738425254822 -0.17420722544193268
4.270075798034668 0.2753850221633911 -0.7830179333686829
4.318342685699463 -1.6265997886657715 -0.809515118598938
2.283475160598755 -2.281881332397461 -0.4542677402496338
0.7262676954269409 0.9606465101242065 -0.11744474619626999
0.9905931949615479 0.5369531512260437 -0.17322400212287903
4.254266262054443 0.29077276587486267 -0.7803178429603577
4.324026107788086 -1.609809160232544 -0.812736451625824
2.27742600440979 -2.2592146396636963 -0.45484042167663574
0.9800774455070496 0.5359099507331848 -0.17072977125644684
4.263064861297607 0.3078240156173706 -0.7813719511032104
4.334662914276123 -1.5948454141616821 -0.8144099712371826
2.2752177715301514 -2.2397565841674805 -0.45552095770835876
0.6093985438346863 0.8184648752212524 -0.09681721776723862
0.9868937730789185 0.5443452596664429 -0.17125718295574188
4.252179145812988 0.32345491647720337 -0.7788293957710266
4.358316421508789 -1.5854361057281494 -0.8219304084777832
2.272336006164551 -2.220579147338867 -0.45783889293670654
0.6215294003486633 0.8405622839927673 -0.0982663705945015
0.9848485589027405 0.548159658908844 -0.17086373269557953
4.251101016998291 0.3390485644340515 -0.7780849933624268
4.377999782562256 -1.5735881328582764 -0.8261719942092896
2.26585054397583 -2.198063611984253 -0.4588433802127838
0.603941798210144 0.8227689266204834 -0.09450171887874603
0.9786254167556763 0.5494036078453064 -0.16933086514472961
4.254533290863037 0.3557676076889038 -0.779727578163147
4.392333507537842 -1.5605851411819458 -0.831988513469696
2.2664172649383545 -2.1825461387634277 -0.46070021390914917
0.5951263308525085 0.8170201778411865 -0.09234490245580673
0.980913519859314 0.555652379989624 -0.16928981244564056
4.243471622467041 0.37125563621520996 -0.7771875858306885
4.5187668800354 -1.5859920978546143 -0.8565026521682739
2.259690999984741 -2.1601622104644775 -0.46162235736846924
0.5951200723648071 0.8233356475830078 -0.09138143062591553
0.9790492057800293 0.5593460202217102 -0.1679123491048813
4.242284297943115 0.3875712454319 -0.7757006287574768
4.6499481201171875 -1.6120069026947021 -0.8828469514846802
2.2601253986358643 -2.1447787284851074 -0.4628807604312897
0.5892602801322937 0.8215543627738953 -0.08969835191965103
0.9685229063034058 0.5580506324768066 -0.1656591147184372
4.236002445220947 0.40340402722358704 -0.7740622162818909
4.6466450691223145 -1.5909022092819214 -0.8819384574890137
2.2532193660736084 -2.122584104537964 -0.463183730840683
0.5693886876106262 0.7991382479667664 -0.08601966500282288
0.9621962904930115 0.5593373775482178 -0.16414916515350342
4.229733943939209 0.41845598816871643 -0.7724255323410034
4.6611833572387695 -1.5768166780471802 -0.8871413469314575
2.2533466815948486 -2.1071696281433105 -0.46547335386276245
0.5780190825462341 0.8175752758979797 -0.08654304593801498
0.9602383971214294 0.5629180073738098 -0.16337212920188904
4.218175411224365 0.4336739182472229 -0.7713776230812073
4.64809513092041 -1.5525251626968384 -0.88615882396698
2.253450393676758 -2.0918374061584473 -0.4672015905380249
0.5750874280929565 0.8197864890098572 -0.08514492213726044
0.9540320038795471 0.563988208770752 -0.1616789549589157
4.2119879722595215 0.4493881165981293 -0.7682649493217468
4.649055004119873 -1.5330286026000977 -0.8869779706001282
2.2357177734375 -2.0594515800476074 -0.4645965099334717
0.558045506477356 0.8014289736747742 -0.0818338394165039
0.9604558348655701 0.572773814201355 -0.16234183311462402
4.22992467880249 0.46773532032966614 -0.7710913419723511
4.635754108428955 -1.5089316368103027 -0.8859649896621704
2.235536813735962 -2.044189214706421 -0.46678686141967773
0.5579932332038879 0.8076502680778503 -0.08105209469795227
0.9501644372940063 0.5709164142608643 -0.16013135015964508
4.223343372344971 0.4834293723106384 -0.769457995891571
4.631297588348389 -1.4887304306030273 -0.8875733017921448
2.2426507472991943 -2.0356521606445312 -0.4699588418006897
0.5553674697875977 0.8095772862434387 -0.07985271513462067
0.9482083916664124 0.5744816660881042 -0.15897046029567719
4.216964244842529 0.49687179923057556 -0.7678263783454895
4.627603054046631 -1.4679621458053589 -0.8857784271240234
2.2277097702026367 -2.00724720954895 -0.4684993028640747
0.5357624292373657 0.7868725061416626 -0.07625768333673477
0.950337290763855 0.5807715654373169 -0.15870827436447144
4.220175266265869 0.5136869549751282 -0.7672321200370789
4.613691806793213 -1.4440749883651733 -0.8864077925682068
2.223579168319702 -1.9888076782226562 -0.46982890367507935
0.5357241034507751 0.7930487990379333 -0.07532073557376862
0.9398671388626099 0.5791150331497192 -0.1565268635749817
4.218119144439697 0.5313764810562134 -0.76649010181427
4.374849796295166 -1.3508960008621216 -0.8395174145698547
2.219811201095581 -1.970147967338562 -0.4700855314731598
0.5356400012969971 0.7992238998413086 -0.07453762739896774
0.9378538727760315 0.5826277136802673 -0.15556342899799347
4.201540946960449 0.5456848740577698 -0.7630892395973206
4.19576358795166 -1.278770923614502 -0.8074121475219727
2.215532064437866 -1.9518800973892212 -0.47083133459091187
0.5248889327049255 0.7885275483131409 -0.0722217932343483
0.9525896310806274 0.5966320037841797 -0.15756912529468536
4.204619884490967 0.5610160827636719 -0.7632352113723755
4.355626583099365 -1.309237003326416 -0.8396643400192261
2.218520164489746 -1.9401166439056396 -0.47364503145217896
0.5220502614974976 0.7905293703079224 -0.0708991065621376
0.9337056875228882 0.5898081660270691 -0.15344342589378357
4.212682723999023 0.5778148174285889 -0.762779712677002
4.558618068695068 -1.3511897325515747 -0.8777896165847778
2.2029385566711426 -1.9122867584228516 -0.47143062949180603
0.5275347828865051 0.8049306273460388 -0.07084283232688904
0.9399833083152771 0.5986047983169556 -0.15404163300991058
4.195868968963623 0.5934253334999084 -0.7586520314216614
4.558464050292969 -1.3321245908737183 -0.8801975846290588
2.1987342834472656 -1.893881916999817 -0.4715701937675476
0.5137611627578735 0.7902166843414307 -0.06805860996246338
0.9337272644042969 0.5994423031806946 -0.1523887664079666
4.567974090576172 -1.3158873319625854 -0.8827682137489319
2.197720527648926 -1.8790217638015747 -0.4734991788864136
0.5136093497276306 0.7963550686836243 -0.06726102530956268
0.9191798567771912 0.5948716998100281 -0.14920136332511902
4.553555488586426 -1.2936781644821167 -0.8807690143585205
2.1930553913116455 -1.8611626625061035 -0.4730833172798157
0.5108765363693237 0.7982213497161865 -0.065937839448452
0.9212518930435181 0.6010149121284485 -0.14891666173934937
4.558044910430908 -1.2760597467422485 -0.8832475543022156
2.191873073577881 -1.84638249874115 -0.47496211528778076
0.5026490092277527 0.7917426228523254 -0.06393437087535858
0.9273251891136169 0.6100659966468811 -0.14928963780403137
4.515233993530273 -1.2453984022140503 -0.875710666179657
2.1910593509674072 -1.831360101699829 -0.47581931948661804
0.5002005100250244 0.7933833003044128 -0.06278856098651886
0.9254269003868103 0.6132237911224365 -0.14812715351581573
4.180366039276123 0.6710829138755798 -0.7511212229728699
4.505753993988037 -1.2241863012313843 -0.8729540109634399
2.1859867572784424 -1.8135524988174438 -0.476328581571579
0.923258900642395 0.6166688203811646 -0.14735208451747894
4.182487487792969 0.6879070997238159 -0.7527344822883606
4.505084037780762 -1.2054483890533447 -0.875291109085083
2.1849989891052246 -1.7986137866973877 -0.4771445393562317
0.9250146746635437 0.6232258081436157 -0.14684195816516876
4.170118808746338 0.7038255929946899 -0.7495098114013672
4.547397613525391 -1.1980786323547363 -0.884311318397522
2.1873064041137695 -1.7871043682098389 -0.479764461517334
0.9107620716094971 0.6180242300033569 -0.14373154938220978
4.163295745849609 0.716881275177002 -0.7464253902435303
4.542245864868164 -1.1789345741271973 -0.882463276386261
2.201237440109253 -1.785072922706604 -0.4834177494049072
0.9207204580307007 0.6299585700035095 -0.1450897604227066
4.531859874725342 -1.1576839685440063 -0.8829566836357117
2.2076799869537354 -1.776289463043213 -0.4863852858543396
0.906282901763916 0.6249693036079407 -0.14200246334075928
4.5359721183776855 -1.140199065208435 -0.8845893740653992
2.2214763164520264 -1.7740161418914795 -0.49105438590049744
0.9081600904464722 0.6311876773834229 -0.14167705178260803
1.322172999382019 0.24337983131408691 -0.23632587492465973
4.540017127990723 -1.1226997375488281 -0.8862218856811523
2.2352805137634277 -1.7716615200042725 -0.49574363231658936
0.9019189476966858 0.6317650675773621 -0.13969649374485016
1.3165531158447266 0.24733765423297882 -0.23475883901119232
4.520427227020264 -1.0994540452957153 -0.8815673589706421
2.2534096240997314 -1.7719850540161133 -0.5003136992454529
0.8875386118888855 0.6265536546707153 -0.1368606686592102
1.3156741857528687 0.2524064779281616 -0.234291210770607
4.524465560913086 -1.0820530652999878 -0.8823793530464172
0.8934183716773987 0.6356236934661865 -0.1371537446975708
1.3099417686462402 0.25652551651000977 -0.2329639494419098
4.5088605880737305 -1.0600347518920898 -0.8818861246109009
4.386982440948486 -3.3979897499084473 -0.9804444909095764
0.8871663808822632 0.6360859870910645 -0.13539007306098938
1.3139827251434326 0.2623211741447449 -0.23288820683956146
4.507930278778076 -1.0423953533172607 -0.8809509873390198
4.383703231811523 -3.3685989379882812 -0.9817895889282227
0.5565778017044067 0.9644097089767456 -0.05796591192483902
0.8889467716217041 0.6423086524009705 -0.13504846394062042
1.3081783056259155 0.2663896679878235 -0.23179899156093597
4.506809711456299 -1.023922085762024 -0.8816290497779846
4.391423225402832 -3.3490030765533447 -0.9857350587844849
0.5560625195503235 0.9705470204353333 -0.056859321892261505
0.8825572729110718 0.6428642272949219 -0.1334846019744873
1.3120487928390503 0.2724287807941437 -0.23218660056591034
4.50097131729126 -1.0044368505477905 -0.8805601000785828
4.376089572906494 -3.3108112812042236 -0.9843742847442627
0.5846072435379028 1.0290948152542114 -0.058506689965724945
0.8803259134292603 0.6461907029151917 -0.1321505308151245
1.306252121925354 0.27646124362945557 -0.2308669239282608
4.499998092651367 -0.9860957264900208 -0.8796223998069763
4.3402862548828125 -3.258779287338257 -0.9785169363021851
0.8742023706436157 0.6464036107063293 -0.1302216351032257
1.305387258529663 0.2812809348106384 -0.2299347221851349
4.493847846984863 -0.9666795134544373 -0.8793514370918274
4.332352161407471 -3.226883888244629 -0.9787957668304443
0.887861967086792 0.6615508794784546 -0.13144069910049438
1.3044542074203491 0.2863255441188812 -0.22900241613388062
4.336385250091553 -3.204073667526245 -0.9798361659049988
0.8776957392692566 0.6587530970573425 -0.12930424511432648
1.2986640930175781 0.290047824382782 -0.22769291698932648
4.343441486358643 -3.1847431659698486 -0.983642578125
0.867592990398407 0.6559174060821533 -0.1268053650856018
1.3024630546569824 0.29615139961242676 -0.22783687710762024
2.4686663150787354 -0.5013585090637207 -0.4832713007926941
4.339033603668213 -3.1559650897979736 -0.9847319722175598
0.7580443024635315 1.3903515338897705 -0.06720207631587982
0.8691062927246094 0.6623212695121765 -0.12643086910247803
1.3013936281204224 0.30116820335388184 -0.22737060487270355
2.470655918121338 -0.4918923079967499 -0.4828316569328308
4.353860378265381 -3.142414093017578 -0.9903206825256348
0.7413603067398071 1.3711172342300415 -0.06342174112796783
0.862987756729126 0.6624330878257751 -0.12433728575706482
1.3005120754241943 0.30599039793014526 -0.22597165405750275
2.4628868103027344 -0.4805213212966919 -0.4809492230415344
4.353338241577148 -3.1166839599609375 -0.9913378953933716
0.7463744282722473 1.3798149824142456 -0.06273311376571655
0.863223135471344 0.6623744368553162 -0.12300805002450943
1.295941948890686 0.30491510033607483 -0.2237437665462494
2.468196392059326 -0.4824516773223877 -0.47837942838668823
4.365769386291504 -3.126736879348755 -0.9875090718269348
0.75114905834198 1.3771328926086426 -0.06464965641498566
0.8655937910079956 0.6591670513153076 -0.12357775121927261
1.2971793413162231 0.2999544143676758 -0.22327904403209686
2.4665708541870117 -0.49197420477867126 -0.47706255316734314
4.383172988891602 -3.1635708808898926 -0.9872357845306396
0.7393014430999756 1.3436731100082397 -0.06481447070837021
0.8679174780845642 0.6559246778488159 -0.12452716380357742
1.303053617477417 0.29604652523994446 -0.22457244992256165
2.469804048538208 -0.5024873614311218 -0.47623488306999207
4.395834922790527 -3.1984522342681885 -0.9859846830368042
0.8821672201156616 0.6616278886795044 -0.12700287997722626
1.2993682622909546 0.28996703028678894 -0.2237437665462494
4.369039535522461 -3.203512668609619 -0.976742684841156
0.880662739276886 0.6552310585975647 -0.12700554728507996
1.310055136680603 0.2873152494430542 -0.2254011332988739
4.354267120361328 -3.2172863483428955 -0.9692418575286865
0.6060075163841248 1.0746127367019653 -0.05645393952727318
0.8749781250953674 0.6460329294204712 -0.1268053650856018
1.3014695644378662 0.2801990807056427 -0.22397612035274506
4.5115509033203125 -0.9696637988090515 -0.8652623891830444
4.343822002410889 -3.2330703735351562 -0.9635719060897827
0.5677558183670044 0.9986192584037781 -0.05397192761301994
0.8972791433334351 0.6574307680130005 -0.13067121803760529
1.3073601722717285 0.2762190103530884 -0.22480565309524536
4.512840270996094 -0.9897353649139404 -0.8629586696624756
4.414307594299316 -3.3131513595581055 -0.9761881232261658
0.5738679766654968 1.0008145570755005 -0.05541473627090454
0.883562445640564 0.6424170136451721 -0.12890981137752533
1.3084111213684082 0.2711970806121826 -0.22480565309524536
4.509446620941162 -1.0071544647216797 -0.860539436340332
4.418793678283691 -3.341907501220703 -0.9729034304618835
0.5799978971481323 1.002968192100525 -0.057070158421993256
0.8897708058357239 0.6421952843666077 -0.13007034361362457
1.304487943649292 0.26540106534957886 -0.2244408279657364
4.506130695343018 -1.0245949029922485 -0.8573134541511536
4.394985675811768 -3.3505067825317383 -0.9645222425460815
0.5809398293495178 0.9965536594390869 -0.05843484401702881
0.8920259475708008 0.6388634443283081 -0.13102789223194122
1.3103324174880981 0.2613546550273895 -0.22527208924293518
4.521614074707031 -1.0463908910751343 -0.8593416213989258
4.395328044891357 -3.376312017440796 -0.9603305459022522
0.5718940496444702 0.9728237986564636 -0.058745723217725754
0.8982766270637512 0.6383719444274902 -0.13296723365783691
1.3112103939056396 0.2562987506389618 -0.22597165405750275
4.522494792938232 -1.0649062395095825 -0.8594410419464111
4.383584976196289 -3.3929104804992676 -0.9554935693740845
0.575249433517456 0.9707591533660889 -0.060124367475509644
0.8926598429679871 0.629002571105957 -0.13234111666679382
1.3121849298477173 0.25126218795776367 -0.22597165405750275
4.519143581390381 -1.0816142559051514 -0.8561972379684448
0.5630814433097839 0.9430803656578064 -0.059486694633960724
0.9027790427207947 0.6316631436347961 -0.13450579345226288
1.3130193948745728 0.24643655121326447 -0.2264380007982254
4.539669036865234 -1.1032949686050415 -0.8582813739776611
2.2405269145965576 -1.7599570751190186 -0.4844481348991394
0.5510463118553162 0.9152849316596985 -0.059169624000787735
0.9051398038864136 0.6281518936157227 -0.1350826770067215
1.328501582145691 0.24406534433364868 -0.22894470393657684
4.559314250946045 -1.1283161640167236 -0.8603394627571106
2.2339060306549072 -1.7693028450012207 -0.4809669554233551
0.9114256501197815 0.6275772452354431 -0.13665691018104553
4.560154438018799 -1.14712393283844 -0.8587783575057983
2.2123167514801025 -1.765437126159668 -0.4751686751842499
0.5236270427703857 0.8558222651481628 -0.058377183973789215
0.9176979660987854 0.6269503235816956 -0.13843365013599396
4.54618501663208 -1.1621887683868408 -0.8569818139076233
2.2096869945526123 -1.777268886566162 -0.4735220670700073
0.5241073966026306 0.8495969176292419 -0.05913214758038521
0.9117158055305481 0.6179744601249695 -0.13777436316013336
4.167960166931152 0.7169355154037476 -0.7198671102523804
4.551995754241943 -1.1814651489257812 -0.8554953336715698
2.1997735500335693 -1.7826132774353027 -0.46923965215682983
0.5135723948478699 0.8266957402229309 -0.05867303907871246
0.9222158789634705 0.619937002658844 -0.1399853378534317
4.165821552276611 0.7001095414161682 -0.7190280556678772
4.557517051696777 -1.2015953063964844 -0.8539948463439941
2.1936044692993164 -1.7909735441207886 -0.4662743806838989
0.9367599487304688 0.62474125623703 -0.14284279942512512
4.182946681976318 0.6864832043647766 -0.7222849130630493
4.572168350219727 -1.224253535270691 -0.8559084534645081
2.1950857639312744 -1.8056316375732422 -0.4644268751144409
0.5168761014938354 0.8185657858848572 -0.060737840831279755
0.9182986617088318 0.6075780987739563 -0.14027303457260132
4.18555212020874 0.6704167723655701 -0.7222849130630493
4.549015522003174 -1.236792802810669 -0.8490586876869202
2.1961708068847656 -1.8207075595855713 -0.4625545144081116
0.5223572254180908 0.8208847045898438 -0.06257936358451843
0.9328337907791138 0.6122912168502808 -0.1433372050523758
4.587433338165283 -1.2653125524520874 -0.8553741574287415
2.19736909866333 -1.8353315591812134 -0.461656779050827
0.5226386785507202 0.8147188425064087 -0.06310315430164337
0.9309588670730591 0.6059587001800537 -0.14328177273273468
4.578089237213135 -1.281671404838562 -0.8528301119804382
2.202390432357788 -1.853271484375 -0.4605284035205841
0.5227165818214417 0.8086155652999878 -0.06429041922092438
0.9372548460960388 0.6051777601242065 -0.1447003334760666
4.5784406661987305 -1.3007481098175049 -0.8503903746604919
2.2030956745147705 -1.868360996246338 -0.45958760380744934
0.5256335139274597 0.8066278696060181 -0.06546671688556671
0.9351850748062134 0.598996102809906 -0.14502643048763275
4.578426361083984 -1.3197637796401978 -0.8496065735816956
2.2116782665252686 -1.8896194696426392 -0.4591763913631439
0.5310047268867493 0.8089926242828369 -0.06681932508945465
0.9372455477714539 0.5954827070236206 -0.14618933200836182
4.206326961517334 0.5926581025123596 -0.7291549444198608
4.5832929611206055 -1.3393805027008057 -0.8496952056884766
2.2125277519226074 -1.9044181108474731 -0.4581882357597351
0.5284164547920227 0.7986530661582947 -0.06730049848556519
0.9518935680389404 0.5999034643173218 -0.14912918210029602
4.2133283615112305 0.5771541595458984 -0.7307431101799011
4.559520721435547 -1.3514573574066162 -0.8445314168930054
2.2246172428131104 -1.9290635585784912 -0.4584675431251526
0.536687970161438 0.8050339221954346 -0.06918365508317947
0.9456952214241028 0.590936005115509 -0.14859381318092346
4.2105021476745605 0.5603050589561462 -0.7306377291679382
4.319235801696777 -1.2982983589172363 -0.7968830466270447
2.2252745628356934 -1.9439681768417358 -0.4574276804924011
0.5420938730239868 0.8073293566703796 -0.07055864483118057
0.9517949223518372 0.5903679132461548 -0.14984068274497986
4.2176361083984375 0.5447813868522644 -0.7307431101799011
4.300811767578125 -1.3091466426849365 -0.7927039265632629
2.2263143062591553 -1.9586204290390015 -0.4553351104259491
0.5396819710731506 0.7968073487281799 -0.07117876410484314
0.9541476964950562 0.586307168006897 -0.15081803500652313
4.224459648132324 0.5291794538497925 -0.7323328852653503
4.6113128662109375 -1.4239126443862915 -0.8475069999694824
2.2262446880340576 -1.9744690656661987 -0.4532177746295929
0.542133092880249 0.7950354814529419 -0.07235446572303772
0.9517664909362793 0.5805048942565918 -0.1509290337562561
4.211442470550537 0.5118780732154846 -0.7312710285186768
4.629593372344971 -1.4490522146224976 -0.8501376509666443
2.2303466796875 -1.9927594661712646 -0.45286640524864197
0.5506405830383301 0.8011869788169861 -0.07429203391075134
0.9580365419387817 0.5795221924781799 -0.1523815542459488
4.218143463134766 0.49626433849334717 -0.7328616380691528
4.6338090896606445 -1.4699307680130005 -0.8493186235427856
2.245487689971924 -2.02113676071167 -0.45366695523262024
0.5535212755203247 0.7990882396697998 -0.07547970861196518
0.9517430663108826 0.5705093145370483 -0.15200144052505493
4.214995384216309 0.47949284315109253 -0.7327518463134766
4.642480850219727 -1.4923253059387207 -0.8501979112625122
2.242079257965088 -2.0329930782318115 -0.4512403607368469
0.5534014105796814 0.7929874062538147 -0.0762740969657898
0.962151825428009 0.5721928477287292 -0.1541401445865631
4.236523151397705 0.4654713571071625 -0.7354121804237366
4.6609649658203125 -1.517137885093689 -0.8510701060295105
2.249626398086548 -2.0549113750457764 -0.4504674971103668
0.561984658241272 0.7990302443504333 -0.07825395464897156
0.959883451461792 0.566091775894165 -0.15423613786697388
4.228274345397949 0.44888678193092346 -0.7344539761543274
4.6602067947387695 -1.536705732345581 -0.8493562340736389
2.2497637271881104 -2.070213556289673 -0.4481951594352722
0.567456066608429 0.8011504411697388 -0.07985271513462067
0.9661101698875427 0.5650017261505127 -0.15589837729930878
4.234740257263184 0.43313634395599365 -0.7360479831695557
4.668572902679443 -1.559364914894104 -0.8501964211463928
2.263794183731079 -2.099233865737915 -0.45039135217666626
0.5674446225166321 0.7949409484863281 -0.08047020435333252
0.9681780338287354 0.5612331628799438 -0.1566796749830246
4.241147041320801 0.4173428416252136 -0.7376436591148376
4.673274993896484 -1.5781806707382202 -0.8484551906585693
2.2643983364105225 -2.1138033866882324 -0.4485912322998047
0.5788766741752625 0.8049989938735962 -0.08308640867471695
0.9744260907173157 0.5600935816764832 -0.15815763175487518
4.237685680389404 0.4005792438983917 -0.7375338077545166
2.27070951461792 -2.136817455291748 -0.4476486146450043
0.5905423164367676 0.8149036169052124 -0.08539289236068726
0.980774998664856 0.5587437748908997 -0.15964242815971375
4.244226932525635 0.38476115465164185 -0.7376436591148376
4.624037265777588 -1.6030242443084717 -0.836549699306488
2.2740352153778076 -2.155717134475708 -0.4459524154663086
0.5964010953903198 0.8166717886924744 -0.08705117553472519
0.9697645902633667 0.547773003578186 -0.1585138887166977
4.250389099121094 0.36961841583251953 -0.7392411231994629
4.423328876495361 -1.5516283512115479 -0.7978946566581726
2.2700915336608887 -2.1678311824798584 -0.44282230734825134
0.5990516543388367 0.8146157264709473 -0.08811011910438538
0.984624445438385 0.5514161586761475 -0.16141529381275177
4.256557941436768 0.3536926805973053 -0.7408402562141418
4.385627269744873 -1.5556167364120483 -0.7903972864151001
2.2774465084075928 -2.189340114593506 -0.4428594708442688
0.5988531708717346 0.8084179162979126 -0.08908089250326157
0.9909630417823792 0.5499782562255859 -0.16291451454162598
4.257626533508301 0.33732566237449646 -0.7423311471939087
4.3751115798950195 -1.5708256959915161 -0.7887486815452576
2.279971122741699 -2.2086739540100098 -0.44217193126678467
0.6077044010162354 0.8141111731529236 -0.09120412915945053
0.9928721785545349 0.5462875366210938 -0.1637057065963745
4.263672828674316 0.3213355541229248 -0.7439335584640503
4.360149383544922 -1.5852411985397339 -0.7830275297164917
2.2896347045898438 -2.2351412773132324 -0.44115376472473145
0.990423321723938 0.5402206182479858 -0.16377848386764526
4.269918441772461 0.30532246828079224 -0.7440435290336609
4.345286846160889 -1.5987542867660522 -0.7781310677528381
2.285341739654541 -2.2473676204681396 -0.43792107701301575
0.9965539574623108 0.5390595197677612 -0.16528785228729248
4.275691986083984 0.291487455368042 -0.7456477284431458
4.344682693481445 -1.61577308177948 -0.776532769203186
2.2918357849121094 -2.2695446014404297 -0.4378139078617096
0.9942471385002136 0.532663881778717 -0.16535355150699615
4.2768754959106445 0.27357494831085205 -0.7456477284431458
4.320079803466797 -1.626393437385559 -0.7708115577697754
2.3041799068450928 -2.300161838531494 -0.4373035728931427
0.7102183103561401 0.9232368469238281 -0.11010672152042389
1.0136597156524658 0.5380650162696838 -0.16905571520328522
4.300352573394775 -1.6378464698791504 -0.7659316658973694
2.3100345134735107 -2.322972297668457 -0.4365355670452118
1.015520453453064 0.53429114818573 -0.16985687613487244
3.6884400844573975 0.20750737190246582 -0.6440893411636353
4.308088779449463 -1.6597621440887451 -0.7667829394340515
2.305307388305664 -2.335275173187256 -0.4337599277496338
0.9997345805168152 0.521538257598877 -0.16771554946899414
3.7383646965026855 0.1965736597776413 -0.6526771783828735
4.3161396980285645 -1.6810572147369385 -0.7668153643608093
2.3179211616516113 -2.365330934524536 -0.4336455464363098
0.7228410243988037 0.9192272424697876 -0.11465990543365479
1.010502815246582 0.5220061540603638 -0.16998082399368286
4.342406272888184 -1.7105193138122559 -0.7684592008590698
2.3268916606903076 -2.3919599056243896 -0.4328147768974304
0.729034423828125 0.9204723834991455 -0.11678742617368698
1.0297245979309082 0.5276172161102295 -0.173744797706604
4.290756702423096 0.19259090721607208 -0.7496109008789062
4.350837230682373 -1.7305288314819336 -0.7684446573257446
2.3226544857025146 -2.4034993648529053 -0.4305412769317627
1.0228171348571777 0.51912921667099 -0.1730606108903885
4.2913336753845215 0.17610882222652435 -0.7503605484962463
4.467512130737305 -1.798646092414856 -0.7877861261367798
2.32021427154541 -2.4203426837921143 -0.42772287130355835
0.6420751214027405 0.7985804080963135 -0.1044456735253334
1.0246046781539917 0.5153225064277649 -0.1738613396883011
4.291978359222412 0.15963003039360046 -0.7503605484962463
2.3356237411499023 -2.4543616771698 -0.42801299691200256
0.6415096521377563 0.7924811840057373 -0.1051843985915184
1.0352882146835327 0.5157245397567749 -0.1763695776462555
4.307170867919922 0.14438873529434204 -0.7536941766738892
4.755885124206543 -1.9563511610031128 -0.8356737494468689
2.347308874130249 -2.484814405441284 -0.4287901818752289
0.6380653381347656 0.7823453545570374 -0.10503925383090973
1.0459805727005005 0.5162745118141174 -0.1782841831445694
4.278371334075928 0.12847384810447693 -0.7470319271087646
4.731332302093506 -1.9655892848968506 -0.8288891911506653
2.3461527824401855 -2.5001471042633057 -0.4264446794986725
0.6408347487449646 0.7798874378204346 -0.10644873976707458
1.0567231178283691 0.5165403485298157 -0.18061624467372894
4.313207626342773 0.11143870651721954 -0.7538025379180908
4.637336254119873 -1.9484041929244995 -0.811083197593689
2.3500263690948486 -2.524507999420166 -0.4240979254245758
0.6436174511909485 0.7774471044540405 -0.10750573128461838
1.0540480613708496 0.5104548335075378 -0.18067502975463867
4.323452472686768 0.0950930118560791 -0.7555235028266907
4.593988418579102 -1.9509788751602173 -0.8012312650680542
2.354531764984131 -2.5480101108551025 -0.42290595173835754
0.6620338559150696 0.794315755367279 -0.11123654991388321
1.073707103729248 0.5148951411247253 -0.1845557540655136
4.318833351135254 0.07990964502096176 -0.7546629905700684
2.3699147701263428 -2.5817811489105225 -0.42285972833633423
0.664991021156311 0.7916632890701294 -0.11249977350234985
1.0620540380477905 0.5045275092124939 -0.18328453600406647
4.323912620544434 0.06264158338308334 -0.7562782168388367
3.6786890029907227 -1.5949608087539673 -0.6379233002662659
2.366562843322754 -2.5989954471588135 -0.4197635352611542
0.6835564374923706 0.8083072900772095 -0.1166822761297226
1.0728073120117188 0.5045961737632751 -0.1856524497270584
4.324120998382568 0.04603852704167366 -0.7562782168388367
3.609318256378174 -1.5813754796981812 -0.6262368559837341
2.3706328868865967 -2.622711181640625 -0.41843312978744507
0.679976224899292 0.7981222867965698 -0.11686774343252182
1.0744729042053223 0.5005784034729004 -0.18689386546611786
4.323991298675537 0.030942361801862717 -0.7577877044677734
3.586287021636963 -1.5854809284210205 -0.6210448145866394
2.375436305999756 -2.64560866355896 -0.4176812171936035
0.6763578653335571 0.7880062460899353 -0.116666279733181
1.076357364654541 0.49643534421920776 -0.18710073828697205
4.324347019195557 0.012830633670091629 -0.7562782168388367
3.589125633239746 -1.6047418117523193 -0.6191785335540771
2.388305902481079 -2.681518077850342 -0.41675129532814026
0.6693860292434692 0.7741243839263916 -0.1164206936955452
1.0778785943984985 0.49280884861946106 -0.1879282146692276
4.324233531951904 -0.0022641634568572044 -0.7570329904556274
2.38913893699646 -2.701380491256714 -0.41407492756843567
0.6783919930458069 0.7793012261390686 -0.11863303184509277
1.0841114521026611 0.4906345009803772 -0.18974974751472473
4.323931694030762 -0.018112147226929665 -0.7585424184799194
4.377577781677246 -1.9968229532241821 -0.7525997757911682
2.395942211151123 -2.7291646003723145 -0.4124900996685028
0.6808902621269226 0.7769534587860107 -0.11971493810415268
1.094712257385254 0.4910648465156555 -0.19153384864330292
4.333956718444824 -0.0332830511033535 -0.758757472038269
4.358762264251709 -2.003885269165039 -0.7460955381393433
2.396958112716675 -2.748652935028076 -0.410364031791687
0.6869227886199951 0.7780652642250061 -0.12155862152576447
1.0918937921524048 0.4847729802131653 -0.19199681282043457
4.333796977996826 -0.049923963844776154 -0.758757472038269
4.337710380554199 -2.014418363571167 -0.7429556846618652
2.4076313972473145 -2.7794456481933594 -0.40986791253089905
0.6863991022109985 0.7717523574829102 -0.12187836319208145
1.089082956314087 0.4787542521953583 -0.19161872565746307
4.333549976348877 -0.06807684153318405 -0.758757472038269
4.307924270629883 -2.0216479301452637 -0.7341352701187134
2.4162590503692627 -2.8121373653411865 -0.40801480412483215
0.7055365443229675 0.7877151370048523 -0.12628479301929474
1.0952852964401245 0.4764709174633026 -0.19345623254776
4.352982044219971 -0.08358152210712433 -0.7622063755989075
4.29225492477417 -2.032606840133667 -0.7301239371299744
2.4168765544891357 -2.8318002223968506 -0.4057571589946747
0.7080409526824951 0.785256028175354 -0.12757664918899536
1.0923984050750732 0.4704611003398895 -0.19327962398529053
4.337609767913818 -0.0991915836930275 -0.7611342072486877
4.253552436828613 -2.034310817718506 -0.7223370671272278
2.4292478561401367 -2.8675131797790527 -0.4056139588356018
0.7041497230529785 0.7752083539962769 -0.1274755299091339
1.0940723419189453 0.46621009707450867 -0.19410991668701172
4.347309112548828 -0.11611612886190414 -0.7613441348075867
4.2331671714782715 -2.043659210205078 -0.7167840600013733
2.425438165664673 -2.884385108947754 -0.40208306908607483
0.703530490398407 0.7688457369804382 -0.12814469635486603
1.1003073453903198 0.46388307213783264 -0.19554060697555542
4.356629848480225 -0.1346292644739151 -0.7630685567855835
4.220823287963867 -2.0586330890655518 -0.7135715484619141
2.4268476963043213 -2.909693956375122 -0.4002373516559601
0.7062523365020752 0.7661628723144531 -0.12923596799373627
1.1018738746643066 0.45979443192481995 -0.19637419283390045
4.365977764129639 -0.15017454326152802 -0.7647930383682251
4.2139458656311035 -2.0735185146331787 -0.7111126184463501
2.4397037029266357 -2.9449069499969482 -0.39924222230911255
0.7123081088066101 0.7670716047286987 -0.13131310045719147
1.0989760160446167 0.45363855361938477 -0.19618527591228485
4.355525970458984 -0.16656112670898438 -0.7630685567855835
4.210824966430664 -2.092103958129883 -0.7085787653923035
2.448111057281494 -2.9771995544433594 -0.39832109212875366
0.7215444445610046 0.7718689441680908 -0.13347989320755005
1.1050386428833008 0.45140793919563293 -0.19804108142852783
4.221139430999756 -2.1165542602539062 -0.7090867161750793
2.459460735321045 -3.013448476791382 -0.39784571528434753
0.7174398303031921 0.761861264705658 -0.1336878538131714
1.1066675186157227 0.4471226632595062 -0.19866608083248138
4.226658344268799 -2.1396703720092773 -0.7080070972442627
2.4618022441864014 -3.0379035472869873 -0.3944215178489685
