# .PCD v0.7 - Point Cloud Data file format
VERSION 0.7
FIELDS x y z
SIZE 4 4 4
TYPE F F F
COUNT 1 1 1
WIDTH 820
HEIGHT 1
VIEWPOINT 0 0 0 1 0 0 0
POINTS 820
DATA ascii
1.438369870185852 2.4487037658691406 0.02329639159142971
4.054722309112549 2.878347158432007 -0.1580042541027069
3.1270084381103516 0.6202987432479858 -0.21230150759220123
2.108701467514038 -0.4763767421245575 -0.1879960298538208
3.3360707759857178 -2.502972364425659 -0.40232163667678833
1.4369217157363892 2.466897487640381 0.026409072801470757
4.040191650390625 2.8903603553771973 -0.1535104364156723
3.1149702072143555 0.6297856569290161 -0.2110823541879654
2.1153461933135986 -0.469348281621933 -0.1888073980808258
3.373375415802002 -2.510775089263916 -0.40861818194389343
4.0337114334106445 2.9081339836120605 -0.15019330382347107
3.1029398441314697 0.6391999125480652 -0.20931376516819
2.121854305267334 -0.4626390337944031 -0.1899995356798172
3.590407133102417 -2.6519155502319336 -0.4376593232154846
4.020125389099121 2.9186487197875977 -0.1448400616645813
3.081151247024536 0.6464926600456238 -0.20634685456752777
2.1187119483947754 -0.45343896746635437 -0.1899418979883194
3.5883359909057617 -2.6291513442993164 -0.4385247826576233
3.98124623298645 2.91276478767395 -0.1403762251138687
3.0738372802734375 0.6572903394699097 -0.204922616481781
2.1349828243255615 -0.4487440586090088 -0.19125185906887054
3.633918523788452 -2.642134666442871 -0.44607624411582947
3.9741711616516113 2.9310827255249023 -0.13534730672836304
3.0715465545654297 0.6685824394226074 -0.20272812247276306
2.131702423095703 -0.43990254402160645 -0.19119510054588318
3.643324613571167 -2.628615379333496 -0.44921278953552246
3.93991756439209 2.9271080493927 -0.13109879195690155
3.0691099166870117 0.6798433065414429 -0.20217947661876678
2.143172264099121 -0.43369659781455994 -0.19168849289417267
3.653198719024658 -2.614469289779663 -0.4515650272369385
3.93780517578125 2.9469265937805176 -0.12535692751407623
3.0716023445129395 0.6922155022621155 -0.20030230283737183
2.1496331691741943 -0.426808625459671 -0.192125141620636
3.6585075855255127 -2.5980443954467773 -0.4534144699573517
3.919098138809204 2.955397605895996 -0.11996199190616608
3.0789082050323486 0.7057297229766846 -0.19873198866844177
2.1561782360076904 -0.4195091426372528 -0.192178413271904
3.664130449295044 -2.580930471420288 -0.4560408592224121
3.9192123413085938 2.955483913421631 -0.1139649972319603
3.0791428089141846 0.705783486366272 -0.19487270712852478
2.1366703510284424 -0.41648781299591064 -0.18815577030181885
3.6636173725128174 -2.5824828147888184 -0.4513472318649292
3.941976308822632 2.9500482082366943 -0.11689116805791855
3.072005033493042 0.6923062205314636 -0.19370737671852112
2.1352155208587646 -0.42472079396247864 -0.18625600636005402
3.654637575149536 -2.5962557792663574 -0.44508829712867737
3.952712297439575 2.9355435371398926 -0.11946915090084076
3.069767951965332 0.6794270277023315 -0.19340038299560547
2.138622760772705 -0.4335530698299408 -0.18553969264030457
3.6494579315185547 -2.612755298614502 -0.4416656196117401
3.9719529151916504 2.926236391067505 -0.12229491025209427
3.0624845027923584 0.6660500168800354 -0.19278641045093536
2.1467952728271484 -0.4437984824180603 -0.18523910641670227
3.6438066959381104 -2.6299304962158203 -0.4374496340751648
3.998210906982422 2.924105167388916 -0.12624868750572205
3.0795133113861084 0.6579420566558838 -0.194256991147995
2.169562816619873 -0.4568031132221222 -0.18695713579654694
3.6343894004821777 -2.643446922302246 -0.43431228399276733
4.001263618469238 2.902822256088257 -0.12858222424983978
3.1015541553497314 0.6502085328102112 -0.19548840820789337
2.1727917194366455 -0.46620282530784607 -0.1858258992433548
3.6129977703094482 -2.6481900215148926 -0.42817866802215576
4.019952774047852 2.893951892852783 -0.13057129085063934
3.1136927604675293 0.6408485174179077 -0.19610412418842316
2.18576717376709 -0.4773736298084259 -0.18590441346168518
3.463038206100464 -2.55877423286438 -0.40701842308044434
1.4297608137130737 2.4536192417144775 0.033705003559589386
4.045715808868408 2.8921782970428467 -0.13457028567790985
3.1355533599853516 0.6333775520324707 -0.19789385795593262
2.154849052429199 -0.4789024293422699 -0.18303489685058594
3.3461101055145264 -2.491389513015747 -0.3906734585762024
1.4387586116790771 2.4483869075775146 0.03122680075466633
4.064364910125732 2.883058786392212 -0.13831964135169983
3.1379623413085938 0.6213332414627075 -0.19789385795593262
2.138537883758545 -0.483901709318161 -0.18026471138000488
3.3571393489837646 -2.5187795162200928 -0.38934198021888733
1.4451924562454224 2.4388270378112793 0.02770840749144554
4.096285820007324 2.881054639816284 -0.14163553714752197
3.154881477355957 0.6126754283905029 -0.19938096404075623
2.127067804336548 -0.4895084500312805 -0.17906439304351807
3.3556556701660156 -2.537862539291382 -0.38659432530403137
1.4584097862243652 2.442626476287842 0.025323519483208656
4.105735778808594 2.8673977851867676 -0.14513173699378967
3.1766459941864014 0.6048285365104675 -0.20174813270568848
2.159374475479126 -0.5048865079879761 -0.18115206062793732
3.363281011581421 -2.5612058639526367 -0.3854731321334839
1.4695162773132324 2.4418227672576904 0.022881019860506058
4.132564544677734 2.8636581897735596 -0.14922121167182922
3.203404188156128 0.5977649688720703 -0.20273607969284058
2.1428780555725098 -0.5101103186607361 -0.17877748608589172
3.369142532348633 -2.5871031284332275 -0.38209980726242065
1.4758775234222412 2.432170867919922 0.018868615850806236
4.142923831939697 2.8484175205230713 -0.15360870957374573
3.2252423763275146 0.589033842086792 -0.20512241125106812
2.170210123062134 -0.5246281623840332 -0.18042497336864471
3.435150146484375 -2.6569015979766846 -0.38757917284965515
1.49000883102417 2.435288429260254 0.016443530097603798
4.169806003570557 2.8444485664367676 -0.15598143637180328
3.2421517372131348 0.5798507332801819 -0.20548421144485474
2.2020556926727295 -0.5416918992996216 -0.1820567548274994
3.4287023544311523 -2.673980712890625 -0.38347044587135315
1.5094332695007324 2.446845531463623 0.013548068702220917
4.184250831604004 2.831886053085327 -0.15966320037841797
3.2540507316589355 0.5696786642074585 -0.2066834717988968
2.2339653968811035 -0.5582326650619507 -0.18405386805534363
3.4035263061523438 -2.6744656562805176 -0.3771807551383972
1.5342421531677246 2.4667818546295166 0.010647357441484928
4.2069549560546875 2.8248252868652344 -0.1636747121810913
3.2708988189697266 0.5596925616264343 -0.2087784707546234
2.236865520477295 -0.5672603249549866 -0.18404950201511383
3.410471200942993 -2.698263645172119 -0.37588098645210266
4.213049411773682 2.8065686225891113 -0.16616392135620117
3.2828080654144287 0.5493535995483398 -0.2088254690170288
2.2974390983581543 -0.5924472212791443 -0.18756084144115448
3.3877623081207275 -2.7034473419189453 -0.37005069851875305
4.231547832489014 2.7965540885925293 -0.1700330525636673
3.2946126461029053 0.5389230847358704 -0.2100342959165573
2.300032615661621 -0.6025442481040955 -0.18712495267391205
3.3198390007019043 -2.6692190170288086 -0.35995325446128845
1.544312834739685 2.4250195026397705 0.0020071284379810095
4.258384704589844 2.791919231414795 -0.1742580682039261
3.316295623779297 0.5294036865234375 -0.21246238052845
2.3315608501434326 -0.6199446320533752 -0.18944992125034332
3.36055850982666 -2.7222979068756104 -0.36240699887275696
1.560869812965393 2.4322383403778076 -0.0010088002309203148
4.268970489501953 2.7754809856414795 -0.17781291902065277
3.3378984928131104 0.5203137993812561 -0.2143147587776184
2.32458758354187 -0.6272218823432922 -0.1873776614665985
3.2388980388641357 -2.6434640884399414 -0.3459210991859436
1.569772481918335 2.4264988899230957 -0.004035199526697397
4.287407875061035 2.765164613723755 -0.1817236691713333
3.3496124744415283 0.5095715522766113 -0.21553924679756165
2.1251003742218018 -0.5821590423583984 -0.1707027703523636
3.2289562225341797 -2.656071662902832 -0.3422726094722748
1.5704586505889893 2.4081602096557617 -0.007024942897260189
4.263733863830566 2.72782039642334 -0.1838335394859314
3.366227865219116 0.4994828402996063 -0.21708551049232483
2.0701744556427 -0.5752776861190796 -0.16570451855659485
3.2001967430114746 -2.6521403789520264 -0.33733129501342773
4.033176422119141 2.5595316886901855 -0.17515692114830017
3.4076292514801025 0.49226114153862 -0.21963195502758026
2.0777323246002197 -0.5855897068977356 -0.16534318029880524
3.2289817333221436 -2.6960198879241943 -0.33697110414505005
4.338420391082764 2.7309916019439697 -0.19156120717525482
2.070730447769165 -0.592208206653595 -0.1642095297574997
3.2956347465515137 -2.7722342014312744 -0.3404465615749359
2.3565146923065186 3.5307743549346924 -0.022226667031645775
4.390666961669922 2.7414627075195312 -0.19704200327396393
2.293656826019287 -0.6650667786598206 -0.18124133348464966
3.2623777389526367 -2.765718698501587 -0.3343501687049866
2.3470988273620605 3.4889042377471924 -0.02642061933875084
4.4133100509643555 2.7331700325012207 -0.20123670995235443
2.214674234390259 -0.6513941287994385 -0.1735757440328598
3.225861072540283 -2.755145788192749 -0.3286607563495636
2.267249584197998 3.3436830043792725 -0.031024666503071785
4.431691646575928 2.7221319675445557 -0.20525507628917694
2.404982089996338 0.3110722601413727 -0.15554378926753998
2.1024301052093506 -0.6267616748809814 -0.16418741643428802
4.457695960998535 2.7177865505218506 -0.20786619186401367
2.4159810543060303 0.30349594354629517 -0.15660887956619263
2.1146881580352783 -0.6380592584609985 -0.1649213582277298
3.052509069442749 -2.6441662311553955 -0.3050735592842102
1.9531642198562622 2.837625741958618 -0.03246787562966347
4.471776962280273 2.703939199447632 -0.21171341836452484
2.4220542907714844 0.29481661319732666 -0.1573556363582611
2.1122775077819824 -0.6461911797523499 -0.16415029764175415
3.0424935817718506 -2.6560070514678955 -0.3022540807723999
2.3482577800750732 3.3849995136260986 -0.04314374923706055
4.4906005859375 2.691828727722168 -0.21485957503318787
2.4131808280944824 0.2847646474838257 -0.15713617205619812
2.1049587726593018 -0.6532043218612671 -0.16301044821739197
3.0357861518859863 -2.6717007160186768 -0.29839253425598145
2.420783042907715 3.46237850189209 -0.04866742715239525
4.508894920349121 2.68038010597229 -0.2189316749572754
2.424095630645752 0.2770479917526245 -0.15820732712745667
2.102658748626709 -0.6609489321708679 -0.16147173941135406
3.0261287689208984 -2.6829471588134766 -0.29556921124458313
2.571019172668457 3.650059223175049 -0.05610736459493637
4.535768985748291 2.67390513420105 -0.22344161570072174
2.41023588180542 0.2660925090312958 -0.15765994787216187
2.100158929824829 -0.6690347790718079 -0.16070236265659332
3.020185708999634 -2.6975135803222656 -0.29239997267723083
2.607496976852417 3.6731760501861572 -0.06132723018527031
4.542017459869385 2.6530773639678955 -0.22690191864967346
2.406350612640381 0.255890429019928 -0.15691319108009338
2.097745895385742 -0.6767449378967285 -0.159932941198349
3.0179193019866943 -2.715439796447754 -0.2888689339160919
2.6225385665893555 3.6685314178466797 -0.0653306245803833
4.585224628448486 2.657961845397949 -0.23232585191726685
2.4170849323272705 0.2489287257194519 -0.15798434615135193
2.095543146133423 -0.6837148070335388 -0.15916353464126587
3.008608102798462 -2.726126194000244 -0.2853260636329651
2.633002996444702 3.654780864715576 -0.06997529417276382
4.599160194396973 2.643566608428955 -0.23532243072986603
2.4130303859710693 0.23915117979049683 -0.15808315575122833
2.0929551124572754 -0.6917734742164612 -0.15839408338069916
2.9988152980804443 -2.737334966659546 -0.28107428550720215
2.6404621601104736 3.636953115463257 -0.07452650368213654
4.626033782958984 2.636503219604492 -0.23992609977722168
2.4088966846466064 0.229828879237175 -0.15818025171756744
2.0902915000915527 -0.7002131938934326 -0.156470388174057
2.9989945888519287 -2.7596497535705566 -0.2785537838935852
2.653726816177368 3.6271860599517822 -0.07923297584056854
4.565942287445068 2.5801308155059814 -0.239986389875412
2.4097228050231934 0.22099830210208893 -0.15818025171756744
2.0830390453338623 -0.7062856554985046 -0.15534861385822296
2.989036798477173 -2.770786762237549 -0.27499714493751526
2.6669528484344482 3.6173670291900635 -0.08393935114145279
4.34913444519043 2.4356322288513184 -0.22984133660793304
2.41555118560791 0.21218301355838776 -0.15808315575122833
2.075894355773926 -0.7119520306587219 -0.15423031151294708
2.980041265487671 -2.780878782272339 -0.2707288861274719
2.696768283843994 3.63252592086792 -0.08844766020774841
4.401593208312988 2.443861484527588 -0.2347804605960846
2.40136981010437 0.20207074284553528 -0.15752795338630676
2.0827460289001465 -0.7228441834449768 -0.15416179597377777
2.9767813682556152 -2.799297332763672 -0.26782578229904175
2.6950345039367676 3.602527141571045 -0.09267043322324753
4.388498783111572 2.415590763092041 -0.23711314797401428
2.392120361328125 0.1924654245376587 -0.15729451179504395
2.0751724243164062 -0.7295624613761902 -0.153045192360878
2.9693102836608887 -2.81481671333313 -0.26458245515823364
2.7141783237457275 3.6005287170410156 -0.09759817272424698
2.3878350257873535 0.18331466615200043 -0.15696749091148376
2.067706823348999 -0.7358707189559937 -0.15193206071853638
2.962747812271118 -2.8292853832244873 -0.2613302171230316
2.7303171157836914 3.594454050064087 -0.10243330150842667
2.393409013748169 0.17534099519252777 -0.157713383436203
2.074742555618286 -0.7461352944374084 -0.15108343958854675
2.7434065341949463 3.5843355655670166 -0.10716012865304947
4.762077808380127 2.553403854370117 -0.2661634087562561
2.4040207862854004 0.16641905903816223 -0.158789724111557
2.062429904937744 -0.7510707974433899 -0.1492505520582199
2.7595198154449463 3.578139305114746 -0.11122209578752518
4.7761335372924805 2.537377119064331 -0.26924124360084534
2.4046146869659424 0.15760675072669983 -0.158789724111557
2.073622226715088 -0.7641773819923401 -0.14949674904346466
3.3105194568634033 -3.231729030609131 -0.2821525037288666
2.7817437648773193 3.579747438430786 -0.11633873730897903
4.802907466888428 2.5290727615356445 -0.2740252614021301
2.410153865814209 0.1486780345439911 -0.15953993797302246
2.0662057399749756 -0.7700574398040771 -0.14800477027893066
2.7886061668395996 3.5615594387054443 -0.12081915140151978
4.825297832489014 2.5183167457580566 -0.2776314616203308
2.410710096359253 0.13984498381614685 -0.15911847352981567
2.0587494373321533 -0.7758841514587402 -0.146901935338974
2.803429126739502 3.5561330318450928 -0.12490436434745789
4.846795558929443 2.5091214179992676 -0.28125330805778503
2.4112064838409424 0.1310083568096161 -0.15911847352981567
2.060786247253418 -0.7848778367042542 -0.14569556713104248
3.0214619636535645 -3.0140883922576904 -0.24832086265087128
2.8101444244384766 3.537902355194092 -0.12936009466648102
4.864668846130371 2.4958086013793945 -0.28558507561683655
2.3867504596710205 0.1204899325966835 -0.15789180994033813
2.0670006275177 -0.7967603206634521 -0.14519494771957397
2.960211753845215 -2.9767911434173584 -0.24059133231639862
2.832360029220581 3.5391592979431152 -0.13532757759094238
4.7668304443359375 2.423583984375 -0.28212571144104004
2.397087812423706 0.11220520734786987 -0.1593887209892273
2.0687150955200195 -0.8061424493789673 -0.14552195370197296
2.8091461658477783 -2.8456637859344482 -0.2256588339805603
2.8377342224121094 3.5218708515167236 -0.13897617161273956
4.735790252685547 2.3849618434906006 -0.2834567725658417
2.397418975830078 0.104254350066185 -0.15980754792690277
2.0566506385803223 -0.8097215890884399 -0.14409638941287994
2.827794313430786 -2.8836185932159424 -0.2243882119655609
2.858057975769043 3.5180938243865967 -0.14403000473976135
2.4028193950653076 0.09440703690052032 -0.1601397842168808
2.8128502368927 -2.891507387161255 -0.22059062123298645
2.8664801120758057 3.5046496391296387 -0.14703211188316345
3.8443703651428223 1.9008411169052124 -0.23376552760601044
2.3981916904449463 0.08542302995920181 -0.1593887209892273
2.2684032917022705 -0.9123522043228149 -0.1563972532749176
2.7999355792999268 -2.897393226623535 -0.2160983383655548
2.8931262493133545 3.508395195007324 -0.15323708951473236
3.8377137184143066 1.8800764083862305 -0.2359326183795929
2.3935019969940186 0.07647332549095154 -0.1590573489665985
2.250931978225708 -0.9158397316932678 -0.15416733920574188
2.7884371280670166 -2.908771514892578 -0.21187885105609894
2.8982744216918945 3.4909884929656982 -0.15685990452766418
3.8399760723114014 1.8637640476226807 -0.23789197206497192
2.393754482269287 0.06811797618865967 -0.1590573489665985
2.233924388885498 -0.918021559715271 -0.15237458050251007
2.7921640872955322 -2.9330861568450928 -0.20939518511295319
2.914130687713623 3.484025239944458 -0.16258199512958527
3.8784871101379395 1.8640892505645752 -0.2420928031206131
2.3939807415008545 0.05850762873888016 -0.15947531163692474
2.221078395843506 -0.9231815934181213 -0.1504855453968048
2.7770638465881348 -2.940772294998169 -0.2056073546409607
2.939667224884033 3.488495111465454 -0.16727854311466217
2.399167060852051 0.04983647167682648 -0.15980754792690277
2.21775221824646 -0.9313464164733887 -0.149226114153862
2.742481231689453 -2.925557851791382 -0.2003311812877655
2.9446592330932617 3.470994472503662 -0.17088434100151062
4.632207870483398 2.1846911907196045 -0.2944095730781555
2.3793325424194336 0.04028521850705147 -0.1593092679977417
2.1592421531677246 -0.9160991311073303 -0.14469221234321594
2.721675157546997 -2.924773931503296 -0.19539907574653625
2.9702281951904297 3.4752330780029297 -0.176422119140625
4.62195348739624 2.159181833267212 -0.29593291878700256
2.3844690322875977 0.032463137060403824 -0.15922704339027405
2.1882591247558594 -0.9374370574951172 -0.1447697877883911
2.7120988368988037 -2.933931827545166 -0.19121518731117249
2.973043203353882 3.4528231620788574 -0.18061526119709015
4.611574649810791 2.133777379989624 -0.29743528366088867
2.3795359134674072 0.022842606529593468 -0.15972459316253662
2.143284559249878 -0.9283704161643982 -0.141630619764328
2.69026255607605 -2.933849573135376 -0.1877192109823227
2.9921212196350098 3.4493305683135986 -0.18499621748924255
4.5923171043396 2.103496551513672 -0.2992086708545685
2.1399574279785156 -0.9362590909004211 -0.13999995589256287
2.672919273376465 -2.9364702701568604 -0.1823970228433609
3.0013058185577393 3.4344065189361572 -0.19036631286144257
4.590761661529541 2.0824618339538574 -0.30125683546066284
2.154794931411743 -0.9521752595901489 -0.1407853662967682
2.6756393909454346 -2.961188793182373 -0.17983202636241913
3.009267807006836 3.420558452606201 -0.19413360953330994
4.587721347808838 2.0646917819976807 -0.30241644382476807
2.6291141510009766 -0.002294335514307022 -0.17600835859775543
2.0922670364379883 -0.933288037776947 -0.1357082724571228
2.6659085750579834 -2.970160722732544 -0.1763492077589035
3.0469987392425537 3.4403741359710693 -0.19904498755931854
4.577541828155518 2.038053035736084 -0.3047146201133728
2.6590139865875244 -0.013458593748509884 -0.17801223695278168
2.193246364593506 -0.9889065623283386 -0.14082887768745422
2.6707146167755127 -2.9996519088745117 -0.17254607379436493
3.059471368789673 3.4290523529052734 -0.20305541157722473
4.584530830383301 2.0220189094543457 -0.30646368861198425
2.663943290710449 -0.02231791988015175 -0.17834621667861938
2.22672438621521 -1.0119619369506836 -0.1418856531381607
2.680708408355713 -3.0310556888580322 -0.1703026294708252
3.0651729106903076 3.4101991653442383 -0.2082161009311676
4.596237659454346 2.007091522216797 -0.31114575266838074
2.668769598007202 -0.03214093670248985 -0.17961184680461884
2.2273812294006348 -1.0225975513458252 -0.14174744486808777
2.66028094291687 -3.029200315475464 -0.16756099462509155
3.0875604152679443 3.4098856449127197 -0.21371382474899292
4.6316447257995605 2.0004537105560303 -0.31476444005966187
2.678650379180908 -0.043482497334480286 -0.1793481707572937
2.2414824962615967 -1.03998601436615 -0.14074592292308807
2.7012779712677 -3.0998079776763916 -0.16585993766784668
3.1054532527923584 3.4068710803985596 -0.21820083260536194
4.647623062133789 1.9881343841552734 -0.31803399324417114
2.688467264175415 -0.05256001651287079 -0.18001613020896912
2.147639036178589 -1.0051136016845703 -0.13423152267932892
2.7788028717041016 -3.211333990097046 -0.16759540140628815
3.1245453357696533 3.402682065963745 -0.22270511090755463
4.659319877624512 1.9729669094085693 -0.3209972679615021
2.7082064151763916 -0.06287655979394913 -0.18135206401348114
2.265873670578003 -1.0705897808074951 -0.14054937660694122
3.1238601207733154 3.3758249282836914 -0.22655870020389557
4.675568103790283 1.9596691131591797 -0.3242849111557007
2.284574508666992 -1.0896861553192139 -0.1397404670715332
2.794309616088867 -3.277503728866577 -0.16094127297401428
3.1531014442443848 3.3824708461761475 -0.23182412981987
4.7009968757629395 1.9501010179519653 -0.3282265067100525
2.293889045715332 -1.104960560798645 -0.14012296497821808
2.721022129058838 -3.215338945388794 -0.15445323288440704
3.1721177101135254 3.377962350845337 -0.23798635601997375
4.726700782775879 1.9395250082015991 -0.33308058977127075
4.626736640930176 -0.16076070070266724 -0.3115510046482086
2.3792850971221924 -1.1578856706619263 -0.14423251152038574
2.618243932723999 -3.1191956996917725 -0.1450585573911667
3.1809310913085938 3.3625643253326416 -0.24096141755580902
4.752214431762695 1.9296741485595703 -0.33527690172195435
4.656167030334473 -0.17805804312229156 -0.31193891167640686
2.3396432399749756 -1.1482053995132446 -0.14069083333015442
2.7711801528930664 -3.323714017868042 -0.14960427582263947
3.2102508544921875 3.3687400817871094 -0.24794650077819824
4.777499675750732 1.9195739030838013 -0.341074675321579
4.6802263259887695 -0.19779621064662933 -0.3152439594268799
2.326134204864502 -1.153185248374939 -0.13879238069057465
2.7674520015716553 -3.346463680267334 -0.1463330090045929
3.207428216934204 3.3435065746307373 -0.2509256899356842
4.784336566925049 1.901984453201294 -0.3437705338001251
4.7344746589660645 -0.21581928431987762 -0.31728261709213257
2.348748207092285 -1.175140142440796 -0.139018714427948
2.774303436279297 -3.379896640777588 -0.1420012265443802
3.2299158573150635 3.3423399925231934 -0.2557930648326874
4.810007095336914 1.8908342123031616 -0.3478091061115265
4.7584428787231445 -0.2368893176317215 -0.3189525306224823
2.3531970977783203 -1.188685417175293 -0.13816691935062408
2.739877939224243 -3.36301589012146 -0.13707977533340454
3.2315406799316406 3.3195865154266357 -0.25901177525520325
4.83533239364624 1.880358099937439 -0.35186854004859924
4.807415962219238 -0.2569943964481354 -0.3214520812034607
2.348888635635376 -1.1973350048065186 -0.13678649067878723
2.7181804180145264 -3.361469030380249 -0.1328335702419281
3.260969877243042 3.325345516204834 -0.2652847468852997
4.8553924560546875 1.8696465492248535 -0.3546997308731079
4.826460838317871 -0.274066299200058 -0.32278454303741455
2.353851079940796 -1.2097151279449463 -0.13591893017292023
2.7133495807647705 -3.3783469200134277 -0.1293594390153885
3.2799549102783203 3.3202736377716064 -0.27074095606803894
4.937607288360596 1.8775935173034668 -0.36290696263313293
4.855137348175049 -0.2944013476371765 -0.3264811038970947
2.344606876373291 -1.2168866395950317 -0.13427937030792236
2.693620443344116 -3.3814971446990967 -0.12453383207321167
3.284350633621216 3.3015925884246826 -0.27341312170028687
4.84418249130249 -0.31156125664711 -0.324116975069046
2.3538944721221924 -1.2316325902938843 -0.13364987075328827
2.710369110107422 -3.425771713256836 -0.12201756238937378
3.30682373046875 3.2999048233032227 -0.2791845500469208
5.618749618530273 2.091827154159546 -0.4171435832977295
4.832996368408203 -0.328633189201355 -0.324296236038208
2.3977832794189453 -1.2663477659225464 -0.1349935233592987
2.623788833618164 -3.341434955596924 -0.11421804875135422
3.3186864852905273 3.287554979324341 -0.2840765714645386
5.64525842666626 2.0770506858825684 -0.42168140411376953
4.831698894500732 -0.3471881151199341 -0.324296236038208
2.5900886058807373 -3.323523759841919 -0.10886501520872116
3.331606864929199 3.273960828781128 -0.2897834777832031
5.671953201293945 2.0610594749450684 -0.42834651470184326
4.815342903137207 -0.36544838547706604 -0.3232942521572113
2.595134973526001 -3.3577122688293457 -0.10519592463970184
3.3458707332611084 3.2662389278411865 -0.2933575212955475
5.7067742347717285 2.0523152351379395 -0.43258753418922424
4.809187889099121 -0.381025105714798 -0.32211834192276
3.3576717376708984 3.253810167312622 -0.29662173986434937
5.718885898590088 2.0330302715301514 -0.4340026378631592
4.802717685699463 -0.3990750312805176 -0.32178521156311035
3.903315782546997 -2.137002944946289 -0.21063591539859772
1.7561087608337402 -2.306892156600952 -0.06579326093196869
3.3861913681030273 3.2597432136535645 -0.30312684178352356
5.749816417694092 2.0191919803619385 -0.44110390543937683
4.791281223297119 -0.41581249237060547 -0.3211189806461334
3.8875575065612793 -2.1451621055603027 -0.2078382670879364
1.7665640115737915 -2.3366639614105225 -0.06442886590957642
3.397845506668091 3.247051477432251 -0.30886903405189514
5.780588626861572 2.0062289237976074 -0.4450446665287018
4.789669513702393 -0.43336552381515503 -0.3219583332538605
3.8833730220794678 -2.163233757019043 -0.20574457943439484
3.409526824951172 3.234389305114746 -0.3129703104496002
5.797116279602051 1.9881881475448608 -0.44897910952568054
4.783082485198975 -0.45044994354248047 -0.32162436842918396
3.87589168548584 -2.176828145980835 -0.20341701805591583
3.428985357284546 3.227924108505249 -0.31774452328681946
5.828173637390137 1.973861813545227 -0.45295366644859314
4.776519298553467 -0.4683418273925781 -0.3187774419784546
3.872356414794922 -2.1935510635375977 -0.20053860545158386
3.450397491455078 3.2265665531158447 -0.32287687063217163
5.87297248840332 1.9650691747665405 -0.4591328501701355
4.7698073387146 -0.4853404462337494 -0.3184460699558258
3.8643813133239746 -2.2077810764312744 -0.19820831716060638
1.7208478450775146 -2.346081495285034 -0.051802124828100204
3.454681396484375 3.206918478012085 -0.32630863785743713
5.903653621673584 1.9513037204742432 -0.46315163373947144
4.753166675567627 -0.5012555122375488 -0.31661778688430786
3.8520243167877197 -2.219487428665161 -0.1956581175327301
1.7004952430725098 -2.3362410068511963 -0.04892447590827942
3.466115951538086 3.193962574005127 -0.33206725120544434
5.929077625274658 1.9367759227752686 -0.4689919054508209
4.751096725463867 -0.5194905400276184 -0.31828615069389343
3.848299741744995 -2.236168622970581 -0.19277074933052063
1.7358590364456177 -2.403289556503296 -0.04708962142467499
3.4923040866851807 3.194504737854004 -0.33760327100753784
5.959468841552734 1.9225590229034424 -0.47633111476898193
4.7393012046813965 -0.5357860326766968 -0.3167892098426819
3.8401072025299072 -2.2502756118774414 -0.19199393689632416
1.7299745082855225 -2.413731813430786 -0.04457752779126167
3.5080173015594482 3.1842243671417236 -0.3420935571193695
5.985983371734619 1.9046167135238647 -0.4800408184528351
4.732405662536621 -0.552580714225769 -0.3156262934207916
3.831552505493164 -2.265071392059326 -0.1888865977525711
1.7008551359176636 -2.3915674686431885 -0.041491203010082245
3.5443038940429688 3.195788621902466 -0.34794604778289795
6.006702899932861 1.8881447315216064 -0.4833817183971405
3.8276009559631348 -2.281708240509033 -0.1867654174566269
1.6892235279083252 -2.393739938735962 -0.03784117475152016
3.526041269302368 3.155968427658081 -0.3491670787334442
5.9895339012146 1.8586536645889282 -0.48475182056427
3.8150413036346436 -2.2932145595550537 -0.18344855308532715
1.6689897775650024 -2.3835644721984863 -0.034535761922597885
5.972630977630615 1.8282965421676636 -0.4850054979324341
2.207087278366089 -0.2827344238758087 -0.14740243554115295
3.806692123413086 -2.3072314262390137 -0.18111786246299744
1.6431429386138916 -2.365053653717041 -0.03166661411523819
3.499868392944336 3.086634635925293 -0.35497286915779114
5.955107688903809 1.7990872859954834 -0.48741328716278076
2.2010390758514404 -0.2905539572238922 -0.1470719277858734
3.802579879760742 -2.323838472366333 -0.17821000516414642
1.716770052909851 -2.4904592037200928 -0.030621277168393135
3.5896942615509033 3.1425397396087646 -0.3671005368232727
5.937532424926758 1.7700552940368652 -0.488704651594162
2.2049286365509033 -0.29929372668266296 -0.1470140814781189
3.794116258621216 -2.337808847427368 -0.17587658762931824
1.6060357093811035 -2.3481924533843994 -0.025820046663284302
3.605254650115967 3.131791353225708 -0.3716517686843872
5.92499303817749 1.7415730953216553 -0.48928770422935486
2.2137248516082764 -0.308755099773407 -0.14728322625160217
3.785625696182251 -2.3517634868621826 -0.17276529967784882
1.572165608406067 -2.3168489933013916 -0.022479597479104996
3.627786636352539 3.128108024597168 -0.3769959509372711
5.89766263961792 1.7100811004638672 -0.4886668920516968
2.1927433013916016 -0.31441670656204224 -0.1463548243045807
3.7854998111724854 -2.3709583282470703 -0.17159350216388702
1.5636757612228394 -2.3226139545440674 -0.01954752765595913
3.6378886699676514 3.1158456802368164 -0.38117605447769165
5.88455867767334 1.6829249858856201 -0.48921677470207214
2.1866652965545654 -0.32172882556915283 -0.14563943445682526
3.77221941947937 -2.3828554153442383 -0.16906538605690002
1.544054627418518 -2.3117144107818604 -0.016496755182743073
3.6413843631744385 3.0957746505737305 -0.38538801670074463
5.866744518280029 1.6534878015518188 -0.49041637778282166
2.1904048919677734 -0.3304855227470398 -0.14596819877624512
3.763559103012085 -2.396728038787842 -0.16595041751861572
1.5415083169937134 -2.3254358768463135 -0.014121398329734802
3.6643612384796143 3.0911478996276855 -0.3916141390800476
5.862831115722656 1.6292134523391724 -0.49386268854141235
2.184163808822632 -0.33812642097473145 -0.14602519571781158
3.7590506076812744 -2.4132678508758545 -0.16301771998405457
1.516498327255249 -2.306016206741333 -0.011079320684075356
3.6906850337982178 3.0902721881866455 -0.3974432945251465
5.859262943267822 1.6040122509002686 -0.49517425894737244
2.1829349994659424 -0.3461335301399231 -0.14563943445682526
3.750251293182373 -2.427074909210205 -0.16067877411842346
1.4916499853134155 -2.2864413261413574 -0.008100061677396297
5.840712547302246 1.5759451389312744 -0.49736669659614563
2.1767523288726807 -0.35333672165870667 -0.1449258178472519
3.741377592086792 -2.4408347606658936 -0.15911945700645447
1.4886966943740845 -2.3002943992614746 -0.005260419100522995
5.821661949157715 1.5501126050949097 -0.4974212646484375
2.195218563079834 -0.36420339345932007 -0.14584897458553314
3.728322982788086 -2.45184588432312 -0.15582624077796936
1.5261784791946411 -2.3772671222686768 -0.002465277211740613
2.948366165161133 2.414928913116455 -0.32538938522338867
5.803302764892578 1.5213854312896729 -0.4974583089351654
2.164379596710205 -0.3672432005405426 -0.14350374042987823
3.7235660552978516 -2.4683148860931396 -0.15288196504116058
1.4637402296066284 -2.298497200012207 0.0
2.9723927974700928 2.416459560394287 -0.33110249042510986
5.794550895690918 1.4942575693130493 -0.5003966093063354
2.172694683074951 -0.37763309478759766 -0.1445409059524536
3.7145822048187256 -2.4820046424865723 -0.1497630923986435
1.4633160829544067 -2.3165271282196045 0.0028693208005279303
2.9733407497406006 2.399183750152588 -0.33224183320999146
5.780671119689941 1.4681035280227661 -0.49873000383377075
2.186039924621582 -0.3886057734489441 -0.14435940980911255
3.7138149738311768 -2.5012292861938477 -0.14775371551513672
1.4521580934524536 -2.3176331520080566 0.006205512210726738
5.771425724029541 1.4421882629394531 -0.5016332864761353
2.150212049484253 -0.39037206768989563 -0.14247003197669983
3.695540428161621 -2.5105438232421875 -0.1450846642255783
1.4511603116989136 -2.335927963256836 0.008639365434646606
3.8011653423309326 3.0214178562164307 -0.43335971236228943
5.756656169891357 1.4182324409484863 -0.5020223259925842
2.1586031913757324 -0.40007343888282776 -0.14273740351200104
3.6872568130493164 -2.522827625274658 -0.14274539053440094
1.4276554584503174 -2.3151848316192627 0.010918751358985901
3.8074817657470703 3.004810333251953 -0.4371480941772461
2.147221803665161 -0.40649810433387756 -0.14247003197669983
3.68171763420105 -2.539846658706665 -0.14056313037872314
1.429589867591858 -2.3374547958374023 0.013390112668275833
3.8339083194732666 3.0029280185699463 -0.4423433542251587
2.1359682083129883 -0.4124826490879059 -0.14106011390686035
3.676586627960205 -2.556246042251587 -0.13681253790855408
1.4210034608840942 -2.342663049697876 0.01673760451376438
3.856314182281494 2.997737169265747 -0.44881540536880493
3.070103168487549 0.7195209264755249 -0.2719956636428833
2.149251699447632 -0.4224455654621124 -0.14241300523281097
3.667231798171997 -2.5697314739227295 -0.13524945080280304
1.4742563962936401 -2.450667142868042 0.019966403022408485
3.89107608795166 3.000861883163452 -0.4567064642906189
3.0676798820495605 0.7071019411087036 -0.2737638056278229
2.1524550914764404 -0.4320566654205322 -0.14235424995422363
3.66194748878479 -2.586092233657837 -0.1322706788778305
1.437074899673462 -2.4088032245635986 0.022519739344716072
3.8977773189544678 2.9833109378814697 -0.46052733063697815
3.060441732406616 0.6936303377151489 -0.2739928662776947
2.1361398696899414 -0.4373210668563843 -0.1410030871629715
3.656590223312378 -2.602447271347046 -0.1292848289012909
1.45368230342865 -2.457063674926758 0.02591080218553543
3.899402379989624 2.9641003608703613 -0.46386778354644775
3.0483100414276123 0.6785854697227478 -0.2748684585094452
2.144423246383667 -0.44643115997314453 -0.14203070104122162
3.643002510070801 -2.612945318222046 -0.12757596373558044
1.4851356744766235 -2.5313522815704346 0.02919800393283367
3.9099152088165283 2.9495434761047363 -0.46814200282096863
3.065326452255249 0.6705912947654724 -0.2767312526702881
2.1281776428222656 -0.45119360089302063 -0.14030075073242188
3.6375226974487305 -2.6292591094970703 -0.12458480149507523
1.4888490438461304 -2.558098793029785 0.03254624456167221
3.952627182006836 2.9580190181732178 -0.47797995805740356
3.077427864074707 0.6608670353889465 -0.27980726957321167
2.1359987258911133 -0.4622094929218292 -0.14132575690746307
3.6279139518737793 -2.6426117420196533 -0.12223473936319351
1.4569536447525024 -2.5245351791381836 0.03510383144021034
3.9631056785583496 2.9432623386383057 -0.48228806257247925
3.10897159576416 0.6557297706604004 -0.283572793006897
2.1100642681121826 -0.4639277160167694 -0.1400895118713379
3.618271827697754 -2.6559410095214844 -0.11910124868154526
1.4551246166229248 -2.542848587036133 0.03784117475152016
3.9854745864868164 2.9372718334198 -0.48893141746520996
3.1210739612579346 0.6457752585411072 -0.2861305773258209
2.113136053085327 -0.473116397857666 -0.1404130458831787
3.608546257019043 -2.6692090034484863 -0.11753448843955994
1.430971384048462 -2.5220391750335693 0.040490321815013885
4.0033183097839355 2.928913116455078 -0.4951089024543762
3.1425209045410156 0.6393530964851379 -0.29015782475471497
2.1211419105529785 -0.4830797016620636 -0.1406804323196411
3.602795362472534 -2.685441017150879 -0.1153125986456871
1.4192490577697754 -2.5228779315948486 0.04294661432504654
4.021584987640381 2.919708490371704 -0.5021741390228271
3.1546292304992676 0.6286395192146301 -0.2933046519756317
2.1095633506774902 -0.488582581281662 -0.14116890728473663
3.588963747024536 -2.6956498622894287 -0.11361752450466156
1.3904924392700195 -2.4930994510650635 0.04484439268708229
4.019723415374756 2.8959174156188965 -0.5058544874191284
3.1713123321533203 0.6204625368118286 -0.29635876417160034
2.102815628051758 -0.495534747838974 -0.14084364473819733
3.5830764770507812 -2.7118263244628906 -0.11217549443244934
1.3934215307235718 -2.520019054412842 0.047750018537044525
4.062098979949951 2.9038901329040527 -0.5168900489807129
3.1928679943084717 0.6125380992889404 -0.3010225296020508
2.1252219676971436 -0.5090438723564148 -0.14285144209861755
3.581078290939331 -2.7310149669647217 -0.11163903027772903
1.343731164932251 -2.450312614440918 0.04877947270870209
4.044895648956299 2.8926587104797363 -0.5209065079689026
3.1874585151672363 0.6115003228187561 -0.3062266409397125
2.134704113006592 -0.511315107345581 -0.14695195853710175
1.3625482320785522 -2.485654592514038 0.04700392857193947
4.0263447761535645 2.9017555713653564 -0.5181322693824768
3.155780076980591 0.6174236536026001 -0.304531067609787
2.1072800159454346 -0.49658676981925964 -0.14721530675888062
3.5823569297790527 -2.7122650146484375 -0.12393932044506073
1.3765218257904053 -2.4894556999206543 0.042701367288827896
4.011368751525879 2.9144299030303955 -0.515017032623291
3.1485047340393066 0.6285618543624878 -0.3040596544742584
2.099241256713867 -0.48657798767089844 -0.14841744303703308
3.592168092727661 -2.6990373134613037 -0.12864460051059723
1.4027080535888672 -2.5150015354156494 0.03970847278833389
4.004889965057373 2.9322097301483154 -0.5129347443580627
3.1314425468444824 0.6370992660522461 -0.30376094579696655
2.105772018432617 -0.4799659252166748 -0.15026886761188507
3.5979199409484863 -2.682783842086792 -0.13320143520832062
1.4115073680877686 -2.510141134262085 0.035184960812330246
3.9858133792877197 2.9418177604675293 -0.5093130469322205
3.1240994930267334 0.6481072902679443 -0.3032878041267395
2.1172571182250977 -0.47403907775878906 -0.15209901332855225
3.603597402572632 -2.6665217876434326 -0.1377476453781128
1.4108519554138184 -2.4875905513763428 0.031446706503629684
3.9443118572235107 2.931441068649292 -0.5026490688323975
3.1022744178771973 0.6554484367370605 -0.3008417785167694
2.1238255500793457 -0.46734192967414856 -0.15282823145389557
3.6172759532928467 -2.656181573867798 -0.14181756973266602
1.424942970275879 -2.4911141395568848 0.028050484135746956
3.9412686824798584 2.9527394771575928 -0.5002286434173584
3.0756349563598633 0.6610435843467712 -0.29848039150238037
2.13029408454895 -0.46058589220046997 -0.1547003537416458
3.626906394958496 -2.6428468227386475 -0.14495058357715607
1.4365761280059814 -2.490229845046997 0.02508878894150257
3.9306976795196533 2.967374801635742 -0.49679046869277954
3.0538415908813477 0.6680788397789001 -0.29550009965896606
2.131941556930542 -0.45276927947998047 -0.15508075058460236
3.636443614959717 -2.6294455528259277 -0.1496499627828598
1.468338131904602 -2.5238709449768066 0.021404525265097618
3.904163122177124 2.9698703289031982 -0.4922148585319519
3.0658299922943115 0.6830472946166992 -0.29691171646118164
2.133584499359131 -0.44456326961517334 -0.1562219262123108
3.641867160797119 -2.613093852996826 -0.15417730808258057
1.4796807765960693 -2.5230636596679688 0.017867697402834892
3.889122247695923 2.982072114944458 -0.4874390661716461
3.0633058547973633 0.6942794919013977 -0.29691171646118164
2.1351191997528076 -0.43672388792037964 -0.15736302733421326
3.6467628479003906 -2.5973713397979736 -0.15869401395320892
1.4227536916732788 -2.405745029449463 0.013658891431987286
3.870493173599243 2.990377902984619 -0.4838884472846985
3.0655689239501953 0.7071788311004639 -0.2962840795516968
2.156154155731201 -0.43279916048049927 -0.16033877432346344
3.6611499786376953 -2.585529088973999 -0.16200025379657745
1.4349703788757324 -2.4043221473693848 0.009773824363946915
3.852442502975464 2.997964859008789 -0.4794960916042328
3.0920350551605225 0.7252302169799805 -0.2990969121456146
2.1382009983062744 -0.4206611216068268 -0.15926478803157806
3.669586658477783 -2.5732920169830322 -0.16591154038906097
1.4429398775100708 -2.3995578289031982 0.00684168329462409
3.8182597160339355 2.9938979148864746 -0.47232934832572937
2.154390335083008 -0.4156501293182373 -0.16074109077453613
3.6752424240112305 -2.556262969970703 -0.16885201632976532
1.4150274991989136 -2.334648370742798 0.0038117978256195784
3.819169521331787 3.0172805786132812 -0.4712342619895935
2.1607155799865723 -0.4086620807647705 -0.1622578352689743
3.6848831176757812 -2.5420305728912354 -0.17354004085063934
1.4191718101501465 -2.320420742034912 -0.0004747295461129397
3.792301893234253 3.0197765827178955 -0.46507665514945984
5.771269798278809 1.4229011535644531 -0.5556022524833679
2.157212495803833 -0.39981570839881897 -0.1630386859178543
3.689018487930298 -2.526869535446167 -0.17802894115447998
1.4609556198120117 -2.3710389137268066 -0.002916444558650255
5.785521030426025 1.4489291906356812 -0.555381715297699
2.1587038040161133 -0.39152461290359497 -0.1634216010570526
3.7027227878570557 -2.51542329788208 -0.18135298788547516
1.4854639768600464 -2.391146421432495 -0.006387026514858007
2.9730944633483887 2.4032716751098633 -0.36137592792510986
5.799470901489258 1.4750330448150635 -0.5572360754013062
2.1846425533294678 -0.38796406984329224 -0.1656659096479416
3.7118115425109863 -2.5017638206481934 -0.1844779998064041
1.472981333732605 -2.3517792224884033 -0.009202231653034687
2.9533493518829346 2.404404401779175 -0.35664102435112
5.813233375549316 1.5023219585418701 -0.556994616985321
2.1908767223358154 -0.3807932734489441 -0.16720256209373474
3.720820903778076 -2.4880523681640625 -0.18838414549827576
1.4838422536849976 -2.3508384227752686 -0.013100393116474152
2.9678523540496826 2.4343535900115967 -0.3560886085033417
5.822323799133301 1.5274580717086792 -0.5562790632247925
2.177518606185913 -0.3698635399341583 -0.16684886813163757
3.729804754257202 -2.4743247032165527 -0.19150897860527039
1.4817034006118774 -2.328497886657715 -0.015896370634436607
5.850280284881592 1.5588260889053345 -0.5573865175247192
2.173912286758423 -0.36105844378471375 -0.16685685515403748
3.7303900718688965 -2.455070972442627 -0.19419923424720764
1.4659209251403809 -2.285160541534424 -0.018480276688933372
5.863941192626953 1.5855070352554321 -0.5570996999740601
2.1850638389587402 -0.35468590259552 -0.16761186718940735
3.739248752593994 -2.4413070678710938 -0.19731688499450684
1.4715580940246582 -2.2755532264709473 -0.021757040172815323
3.6734983921051025 3.0824313163757324 -0.4338850677013397
5.867412567138672 1.6106473207473755 -0.5580129027366638
2.2010951042175293 -0.3486192226409912 -0.16991126537322998
3.7488136291503906 -2.4261443614959717 -0.20277254283428192
1.5107157230377197 -2.3156659603118896 -0.025576559826731682
3.6521308422088623 3.0851974487304688 -0.4283614456653595
5.876524448394775 1.63412344455719 -0.5583183169364929
2.1825625896453857 -0.3374885022640228 -0.1695471853017807
3.752516031265259 -2.4109227657318115 -0.2056596279144287
1.5156224966049194 -2.3064372539520264 -0.028902124613523483
3.643249750137329 3.1039395332336426 -0.4246310889720917
5.88898229598999 1.6641939878463745 -0.5580052733421326
2.1985440254211426 -0.33171355724334717 -0.17108343541622162
3.7578296661376953 -2.3930795192718506 -0.20853964984416962
1.5410168170928955 -2.325575828552246 -0.03262469545006752
3.635852575302124 3.1207082271575928 -0.4217279851436615
5.902177333831787 1.6913073062896729 -0.5576782822608948
2.1997721195220947 -0.323265016078949 -0.1714714914560318
3.7664201259613037 -2.3791921138763428 -0.21242739260196686
1.5467298030853271 -2.3157196044921875 -0.035968489944934845
3.6143996715545654 3.1231701374053955 -0.41707807779312134
5.949329853057861 1.7261883020401 -0.560491144657135
2.215716600418091 -0.3173161447048187 -0.1730155497789383
3.7741622924804688 -2.366609573364258 -0.21553748846054077
1.5794981718063354 -2.3478848934173584 -0.03901908919215202
5.947528839111328 1.7504528760910034 -0.5598596930503845
2.2167747020721436 -0.30918046832084656 -0.17418751120567322
3.778409242630005 -2.3500232696533203 -0.2191789299249649
1.599292278289795 -2.3585963249206543 -0.04227904975414276
5.965120315551758 1.7794133424758911 -0.5599352717399597
2.208036184310913 -0.29932305216789246 -0.1738005131483078
3.795366048812866 -2.3413214683532715 -0.22278423607349396
1.5712244510650635 -2.2990167140960693 -0.04471689835190773
3.557695150375366 3.144263505935669 -0.4020397365093231
5.977497577667236 1.8081285953521729 -0.5595471858978271
2.2189419269561768 -0.29252326488494873 -0.17535942792892456
3.799562692642212 -2.3247275352478027 -0.2248670905828476
1.6873782873153687 -2.449651002883911 -0.05088259279727936
3.5437872409820557 3.152963876724243 -0.3974786698818207
5.994917869567871 1.8374077081680298 -0.558495283126831
2.219968795776367 -0.2843846082687378 -0.1757500320672989
3.8035850524902344 -2.308072090148926 -0.2292741984128952
1.687755823135376 -2.431077480316162 -0.05424179881811142
3.531860589981079 3.1667323112487793 -0.3941670358181
6.006842613220215 1.8663238286972046 -0.5602696537971497
3.8173961639404297 -2.2946300506591797 -0.23186364769935608
1.6655058860778809 -2.3794727325439453 -0.05678241699934006
3.5204837322235107 3.179885149002075 -0.39002725481987
5.990739345550537 1.8854247331619263 -0.5560941100120544
3.8248443603515625 -2.281874895095825 -0.23497305810451508
1.6474310159683228 -2.337113857269287 -0.05889720469713211
3.494311809539795 3.179579019546509 -0.38426584005355835
5.955501079559326 1.8983525037765503 -0.5512662529945374
4.599335670471191 -0.536229133605957 -0.3668670654296875
3.828707218170166 -2.265193223953247 -0.23859184980392456
1.644369125366211 -2.3147077560424805 -0.06145871803164482
3.4939024448394775 3.2026939392089844 -0.38134586811065674
5.938870906829834 1.9182031154632568 -0.5482092499732971
3.836839199066162 -2.2510602474212646 -0.2416975200176239
1.655713677406311 -2.312676429748535 -0.06454546004533768
3.460970163345337 3.194809913635254 -0.3748297095298767
5.908401012420654 1.9323046207427979 -0.5427668690681458
3.844954013824463 -2.2369182109832764 -0.24402667582035065
1.66413152217865 -2.3065266609191895 -0.06802034378051758
3.4567759037017822 3.2144837379455566 -0.3715038001537323
5.87738561630249 1.947174072265625 -0.5395117402076721
3.858004331588745 -2.223829984664917 -0.24896390736103058
1.6998016834259033 -2.3361446857452393 -0.07212173193693161
3.441521644592285 3.223900556564331 -0.3678194284439087
5.8465962409973145 1.96078360080719 -0.5373415350914001
3.860910415649414 -2.2084805965423584 -0.25101375579833984
3.419037342071533 3.226447343826294 -0.36255067586898804
5.801900386810303 1.9694797992706299 -0.5306611657142639
3.8692469596862793 -2.1935741901397705 -0.2533426582813263
3.4121618270874023 3.24141788482666 -0.35882824659347534
5.776492118835449 1.9833688735961914 -0.5246716737747192
4.371518135070801 -0.4124603569507599 -0.35174354910850525
3.881418228149414 -2.1817147731781006 -0.2575126886367798
3.3963139057159424 3.251263380050659 -0.35434529185295105
5.754455089569092 2.0016613006591797 -0.5223244428634644
4.3928093910217285 -0.39668500423431396 -0.35565003752708435
3.384552001953125 3.2638602256774902 -0.3510628342628479
5.7240214347839355 2.013500452041626 -0.5191299915313721
4.379271984100342 -0.38005614280700684 -0.3544444441795349
1.7559083700180054 -2.325099229812622 -0.0890197604894638
3.3621416091918945 3.2661163806915283 -0.34421950578689575
5.707385540008545 2.03118634223938 -0.5161629319190979
4.370640754699707 -0.3631722331047058 -0.3544062077999115
2.3594486713409424 -1.2922956943511963 -0.16123926639556885
3.3396685123443604 3.268162250518799 -0.33904334902763367
5.680691719055176 2.047415018081665 -0.5113034248352051
4.38696813583374 -0.3468027412891388 -0.35561439394950867
2.342139720916748 -1.2716779708862305 -0.1616041660308838
3.3314292430877686 3.284088373184204 -0.3353230357170105
5.644954681396484 2.0590598583221436 -0.5056260824203491
4.373172760009766 -0.32882052659988403 -0.3567025065422058
2.3469302654266357 -1.262635350227356 -0.16299960017204285
2.572472333908081 -3.3295912742614746 -0.14252080023288727
3.3089184761047363 3.285897731781006 -0.33099502325057983
5.619560718536377 2.070936918258667 -0.5018585920333862
4.389261245727539 -0.3138561546802521 -0.35791850090026855
2.3514161109924316 -1.2539575099945068 -0.16532519459724426
2.6122069358825684 -3.355527877807617 -0.14775517582893372
3.29410457611084 3.29410457611084 -0.3265758156776428
