# .PCD v0.7 - Point Cloud Data file format
VERSION 0.7
FIELDS x y z
SIZE 4 4 4
TYPE F F F
COUNT 1 1 1
WIDTH 826
HEIGHT 1
VIEWPOINT 0 0 0 1 0 0 0
POINTS 826
DATA ascii
2.3298981189727783 -3.868419647216797 0.28727987408638
2.5429887771606445 0.5870952010154724 0.02505381405353546
4.740836143493652 -3.334388494491577 0.3230322301387787
2.3104310035705566 -3.868105411529541 0.29136335849761963
2.5353801250457764 0.5755589008331299 0.024050291627645493
3.805631399154663 -0.7694237232208252 0.1355845332145691
4.712153911590576 -3.3400962352752686 0.32494357228279114
2.293565034866333 -3.872034788131714 0.2949680685997009
1.4924259185791016 1.1262580156326294 -0.03328865393996239
2.4789273738861084 0.55319744348526 0.02216539904475212
3.9205520153045654 -0.8062000274658203 0.13907390832901
4.683538913726807 -3.3456716537475586 0.3258293569087982
2.2843332290649414 -3.888885259628296 0.29798370599746704
2.5494158267974854 0.5586597919464111 0.021865228191018105
3.819730281829834 -0.8000707626342773 0.1362825334072113
4.658952713012695 -3.353965997695923 0.327987402677536
2.2573776245117188 -3.87545108795166 0.30024954676628113
2.5465657711029053 0.548261284828186 0.02091405540704727
3.83634352684021 -0.818239688873291 0.13629589974880219
4.622292518615723 -3.3533642292022705 0.3282695412635803
2.238036632537842 -3.874830961227417 0.3034866452217102
3.8626413345336914 -0.8386616706848145 0.1366477757692337
4.5977888107299805 -3.361377239227295 0.3293968439102173
2.2194316387176514 -3.8737781047821045 0.3059268593788147
2.614170551300049 0.5427963137626648 0.019571945071220398
3.869277000427246 -0.8549644947052002 0.1376848965883255
4.573243141174316 -3.3692216873168945 0.33150503039360046
2.207549810409546 -3.8859903812408447 0.31016895174980164
2.5965588092803955 0.5292198061943054 0.017575334757566452
3.919745922088623 -0.8811965584754944 0.13959477841854095
4.5487470626831055 -3.3769659996032715 0.3326086401939392
2.183394193649292 -3.8764824867248535 0.3118903934955597
4.023681640625 -0.920068085193634 0.1426941454410553
4.516852378845215 -3.3778076171875 0.3331122398376465
2.171523094177246 -3.888669729232788 0.31457212567329407
4.088447093963623 -0.9506592750549316 0.14438007771968842
4.50040864944458 -3.391301393508911 0.3338009715080261
2.154733657836914 -3.8920469284057617 0.31732574105262756
4.16281795501709 -0.9840484857559204 0.14489048719406128
4.479998588562012 -3.4017364978790283 0.3332096338272095
2.1355745792388916 -3.8910279273986816 0.318938285112381
4.162932395935059 -0.9848427176475525 0.13593129813671112
4.4685282707214355 -3.393026828765869 0.3225305676460266
2.140507221221924 -3.900015354156494 0.31577280163764954
4.156847953796387 -0.9673287868499756 0.1333790421485901
4.501091003417969 -3.391815662384033 0.31904712319374084
2.1549723148345947 -3.8924784660339355 0.3103373646736145
2.5494143962860107 0.5103487968444824 0.005445423070341349
4.228681564331055 -0.9677205681800842 0.1317800134420395
4.533791542053223 -3.390475273132324 0.31354373693466187
2.181567907333374 -3.9066579341888428 0.3066105246543884
2.586719512939453 0.5276846289634705 0.005529198795557022
4.173756122589111 -0.9390658140182495 0.12771819531917572
4.553834438323975 -3.3807430267333984 0.3091474175453186
2.1887094974517822 -3.8859193325042725 0.30013641715049744
4.182114601135254 -0.9248553514480591 0.12562476098537445
4.586508750915527 -3.378994941711426 0.30553680658340454
2.2080202102661133 -3.8868184089660645 0.2961268723011017
4.224611759185791 -0.9180251955986023 0.12453383207321167
4.615241527557373 -3.3741366863250732 0.3006211817264557
2.2323508262634277 -3.896327257156372 0.2919628620147705
2.5319790840148926 0.5451208353042603 0.0049724397249519825
4.19375467300415 -0.8952358961105347 0.12277761101722717
4.651954174041748 -3.374882936477661 0.2991872727870941
2.2442467212677 -3.8840177059173584 0.28772401809692383
2.5495011806488037 0.5586785674095154 0.004555306863039732
4.182394981384277 -0.8767955899238586 0.12011084705591202
4.668554782867432 -3.3608787059783936 0.29442736506462097
2.263617515563965 -3.8846044540405273 0.2844407260417938
2.537478446960449 0.5667286515235901 0.004537853877991438
4.170954704284668 -0.858450174331665 0.1174597293138504
4.698431968688965 -3.3538341522216797 0.29141965508461
2.279367685317993 -3.8757834434509277 0.2789475917816162
2.5404598712921143 0.5762458443641663 0.005455895327031612
4.13979959487915 -0.8362338542938232 0.11575756222009659
4.7178826332092285 -3.3441567420959473 0.28687745332717896
2.2974438667297363 -3.877039670944214 0.2748475968837738
2.543203592300415 0.5866773128509521 0.005010836757719517
4.12818717956543 -0.8181517720222473 0.11314305663108826
4.750735282897949 -3.341350793838501 0.28304770588874817
2.3117847442626953 -3.868837833404541 0.2701281011104584
2.541034460067749 0.5959941744804382 0.005921896547079086
4.775357246398926 -3.3325743675231934 0.280728816986084
2.336397886276245 -3.8776800632476807 0.26658400893211365
1.4283115863800049 1.111109733581543 -0.03822161257266998
2.5339691638946533 0.6041440367698669 0.005910552106797695
4.804123878479004 -3.326533317565918 0.27761247754096985
2.3481228351593018 -3.8650219440460205 0.2623436450958252
1.451785683631897 1.1379363536834717 -0.0379948727786541
2.536595106124878 0.6146042943000793 0.0068329558707773685
4.84118127822876 -3.326007843017578 0.2739105224609375
2.3702139854431152 -3.869353771209717 0.259252667427063
1.4319334030151367 1.1308728456497192 -0.036309175193309784
2.534217596054077 0.6243398189544678 0.006377426441758871
2.153528928756714 -0.3940810561180115 0.05579912289977074
4.86996603012085 -3.319575309753418 0.2717563211917877
2.389767646789551 -3.869364023208618 0.25506070256233215
1.4627913236618042 1.1643906831741333 -0.03655184805393219
2.483405828475952 0.6214849948883057 0.007148859556764364
2.1451282501220703 -0.3844236135482788 0.05516396835446358
4.902982234954834 -3.315825939178467 0.26774266362190247
2.3987958431243896 -3.852328062057495 0.2497485727071762
1.3961315155029297 1.1197129487991333 -0.034051064401865005
2.4568817615509033 0.6244249939918518 0.007079046219587326
2.161320924758911 -0.3791547417640686 0.054394595324993134
4.918789863586426 -3.3015527725219727 0.26486679911613464
2.4183459281921387 -3.8521862030029297 0.24553513526916504
1.4274340867996216 1.1526169776916504 -0.0336262471973896
2.4981462955474854 0.644669234752655 0.008105295710265636
2.1528525352478027 -0.36954087018966675 0.05376554653048515
4.943521499633789 -3.2919349670410156 0.26035383343696594
2.4325623512268066 -3.8434760570526123 0.24156583845615387
1.3958736658096313 1.1360148191452026 -0.03172844275832176
2.5247843265533447 0.6614229083061218 0.009110599756240845
2.1443426609039307 -0.35999420285224915 0.05313998833298683
4.984879970550537 -3.293168067932129 0.25771576166152954
2.454802989959717 -3.847338914871216 0.23837876319885254
1.3955790996551514 1.1443034410476685 -0.030871622264385223
2.1555309295654297 -0.3537543714046478 0.05262182652950287
5.013741493225098 -3.2859017848968506 0.25543898344039917
2.4744462966918945 -3.846957206726074 0.23331232368946075
2.5246939659118652 0.6812146902084351 0.009584453888237476
2.142015218734741 -0.3434787094593048 0.05188194662332535
5.009182929992676 -3.2567317485809326 0.24937361478805542
2.4886391162872314 -3.838031768798828 0.22932063043117523
2.1531457901000977 -0.33717361092567444 0.05174066498875618
5.004401683807373 -3.2275898456573486 0.2454216331243515
2.505530595779419 -3.833230972290039 0.22557473182678223
2.0666701793670654 0.574303925037384 0.008610558696091175
2.1494522094726562 -0.328528493642807 0.050483476370573044
5.0006232261657715 -3.1968026161193848 0.24045462906360626
2.521005153656006 -3.8233048915863037 0.22157832980155945
0.9281884431838989 0.7838248014450073 -0.017600156366825104
2.064551591873169 0.5818747878074646 0.008610558696091175
2.155594825744629 -0.3213866055011749 0.050219155848026276
4.990245819091797 -3.1669065952301025 0.2353164702653885
2.539322853088379 -3.8234360218048096 0.21725521981716156
0.9215083122253418 0.7839877605438232 -0.016894236207008362
2.076824188232422 0.5935588479042053 0.009424746967852116
2.1320419311523438 -0.3098912537097931 0.04889120161533356
4.989238739013672 -3.1406750679016113 0.23163293302059174
2.550645589828491 -3.8101086616516113 0.21301767230033875
0.9300233721733093 0.7971264719963074 -0.01646232232451439
2.0698323249816895 0.5997752547264099 0.009402930736541748
2.1282222270965576 -0.301375150680542 0.04840261489152908
4.988171577453613 -3.114535093307495 0.22591224312782288
2.567530632019043 -3.8050880432128906 0.20764176547527313
0.9231806993484497 0.797430694103241 -0.015543482266366482
2.067828893661499 0.606634795665741 0.010155160911381245
2.1194169521331787 -0.2922084629535675 0.047804079949855804
4.982629299163818 -3.0857503414154053 0.2230987250804901
2.601224422454834 -3.8247129917144775 0.20518699288368225
0.9051734805107117 0.7876877188682556 -0.014450975693762302
2.130398750305176 -0.28576982021331787 0.04727715253829956
4.9770073890686035 -3.0570878982543945 0.218260258436203
2.6096765995025635 -3.8070592880249023 0.20071598887443542
0.8985298871994019 0.7877121567726135 -0.01334800012409687
2.5133237838745117 0.7573814988136292 0.014202547259628773
2.1611814498901367 -0.28183919191360474 0.047556448727846146
4.962705135345459 -3.0233066082000732 0.2130831778049469
2.5867974758148193 -3.7441813945770264 0.19392074644565582
0.8959162831306458 0.7906906008720398 -0.01293089147657156
2.500833511352539 0.7641043066978455 0.014148443005979061
2.147322416305542 -0.27203142642974854 0.04722922295331955
4.952463150024414 -2.992234230041504 0.2091374397277832
2.5691981315612793 -3.6897165775299072 0.1876557171344757
0.9004933834075928 0.8006203770637512 -0.011987595818936825
2.507561445236206 0.7762199640274048 0.015576972626149654
2.138390064239502 -0.2629401385784149 0.04663504660129547
4.955954074859619 -2.967252254486084 0.20575177669525146
2.5582406520843506 -3.6427106857299805 0.18189476430416107
2.5046944618225098 0.7854037880897522 0.01649325340986252
2.1393635272979736 -0.2551036775112152 0.045506950467824936
4.948705673217773 -2.9406633377075195 0.20102109014987946
2.553105592727661 -3.609886646270752 0.17603978514671326
2.5017988681793213 0.7945786714553833 0.01649325340986252
2.1502158641815186 -0.24840815365314484 0.04571811854839325
4.942319869995117 -2.9124109745025635 0.19731944799423218
2.531609058380127 -3.551806688308716 0.1698465645313263
0.8806902170181274 0.8002431988716125 -0.009761516004800797
2.5036237239837646 0.8052719235420227 0.017442692071199417
2.141115665435791 -0.2401646077632904 0.04437883943319321
4.931535243988037 -2.88175630569458 0.19147562980651855
2.530137777328491 -3.5223562717437744 0.164332315325737
0.8740702271461487 0.8000962734222412 -0.008479610085487366
2.505403757095337 0.8159892559051514 0.018395621329545975
2.147016763687134 -0.23210328817367554 0.04523562267422676
4.920474529266357 -2.851151943206787 0.18964549899101257
2.526127338409424 -3.4884262084960938 0.16018955409526825
0.8709947466850281 0.8034494519233704 -0.007859159260988235
2.4928932189941406 0.8220329284667969 0.01924208179116249
2.11804461479187 -0.22112056612968445 0.04349232465028763
2.5248701572418213 -3.458655595779419 0.15477614104747772
2.499345541000366 0.8343295454978943 0.01977526769042015
2.128713607788086 -0.21510080993175507 0.043696511536836624
4.25105094909668 -2.4218077659606934 0.15631738305091858
2.519244909286499 -3.4257752895355225 0.14998172223567963
0.8723902106285095 0.8166539669036865 -0.006048412527889013
2.496116876602173 0.8439179062843323 0.020695028826594353
2.1395111083984375 -0.20751909911632538 0.04390070214867592
4.255618095397949 -2.403792381286621 0.1535986065864563
2.50508451461792 -3.3804893493652344 0.14472384750843048
0.8875821828842163 0.8370002508163452 -0.005323237273842096
2.459886074066162 0.8417275547981262 0.021327681839466095
2.1402649879455566 -0.19967670738697052 0.043525535613298416
4.2601094245910645 -2.3857758045196533 0.15088501572608948
2.5025827884674072 -3.3513646125793457 0.1402144432067871
2.1409974098205566 -0.1918322592973709 0.042775191366672516
4.256654739379883 -2.3614449501037598 0.14617379009723663
2.49206805229187 -3.3094887733459473 0.13381296396255493
2.141686201095581 -0.18398381769657135 0.042775191366672516
4.24261474609375 -2.3352909088134766 0.143732950091362
2.4849679470062256 -3.2773866653442383 0.12997311353683472
2.460192918777466 0.8712000250816345 0.02368728257715702
2.142291784286499 -0.1768813282251358 0.042400021106004715
4.238049507141113 -2.3125791549682617 0.14076006412506104
2.484895706176758 -3.2524607181549072 0.12576958537101746
2.461374282836914 0.882753849029541 0.024645429104566574
2.1130826473236084 -0.16593213379383087 0.041808392852544785
4.233373641967773 -2.289931297302246 0.137802854180336
2.478573799133301 -3.219655990600586 0.12130244821310043
2.058608293533325 0.7468317151069641 0.021786585450172424
2.1136910915374756 -0.15818727016448975 0.04106851667165756
4.2330322265625 -2.2697322368621826 0.13332515954971313
2.4689786434173584 -3.182987928390503 0.11674269288778305
2.0655016899108887 0.7570928335189819 0.02265397273004055
2.1092772483825684 -0.15008483827114105 0.04060259088873863
4.210469722747803 -2.2378039360046387 0.1306896060705185
2.471457004547119 -3.1621828079223633 0.11280585080385208
1.7609548568725586 1.7462636232376099 0.0012985249049961567
2.0627055168151855 0.7646554112434387 0.02342187613248825
2.1097633838653564 -0.1430893838405609 0.04060259088873863
4.218663692474365 -2.222367286682129 0.1298573911190033
2.4676291942596436 -3.1335456371307373 0.10862285643815994
1.7613091468811035 1.7600797414779663 0.0030421081464737654
2.242319107055664 0.841046154499054 0.02591588906943798
2.110273599624634 -0.13535575568675995 0.04060259088873863
4.209156513214111 -2.197688341140747 0.12516924738883972
2.44497013092041 -3.0814688205718994 0.10437938570976257
1.754844307899475 1.766521692276001 0.004780453629791737
2.131410837173462 0.8092213869094849 0.025467315688729286
2.110814094543457 -0.1268843561410904 0.03986445069313049
4.2180023193359375 -2.1808040142059326 0.12268300354480743
2.448030710220337 -3.0600173473358154 0.09919392317533493
1.7553757429122925 1.7800581455230713 0.006981308106333017
1.997725248336792 0.7668548822402954 0.025023959577083588
2.111258029937744 -0.11914658546447754 0.04023352265357971
4.199314117431641 -2.151672840118408 0.12026111036539078
2.437314748764038 -3.0238356590270996 0.09559686481952667
1.755832314491272 1.7936229705810547 0.008323459886014462
1.9905098676681519 0.7716683149337769 0.024965493008494377
2.1116747856140137 -0.1117769256234169 0.039495378732681274
4.202062129974365 -2.1355178356170654 0.11602038890123367
2.4379310607910156 -3.0041563510894775 0.09185153990983963
1.760327696800232 1.8101845979690552 0.010135971941053867
1.9876558780670166 0.7789537906646729 0.02608329802751541
2.112070322036743 -0.10403650254011154 0.039495378732681274
4.200968265533447 -2.1156234741210938 0.11413246393203735
2.429990768432617 -2.9720425605773926 0.0877893939614296
1.7606195211410522 1.8238117694854736 0.01238829642534256
2.1074435710906982 -0.09606703370809555 0.039402008056640625
4.213220119476318 -2.102470636367798 0.1117883175611496
2.4154891967773438 -2.932307720184326 0.08355962485074997
1.7840741872787476 1.8636680841445923 0.01485965121537447
2.339257001876831 0.936583399772644 0.03298578038811684
2.112807035446167 -0.08781405538320541 0.039495378732681274
4.230640411376953 -2.089994192123413 0.10955493897199631
2.4145114421844482 -2.9072604179382324 0.07982193678617477
1.784765362739563 1.8768101930618286 0.01717740297317505
2.113086700439453 -0.08080726116895676 0.039495378732681274
4.246560096740723 -2.0803682804107666 0.10813641548156738
2.415058135986328 -2.8873531818389893 0.07687728106975555
1.788162350654602 1.8942372798919678 0.01909547671675682
2.113382339477539 -0.07306233793497086 0.03875723108649254
4.272195339202881 -2.073545455932617 0.106107197701931
2.409560441970825 -2.8594186305999756 0.07310369610786438
1.791452169418335 1.9117106199264526 0.02149174176156521
2.108661651611328 -0.06442543864250183 0.03866560384631157
4.298556804656982 -2.065061092376709 0.10405699908733368
2.404876232147217 -2.830721139907837 0.06937367469072342
1.7912306785583496 1.9255708456039429 0.02386879362165928
2.098888874053955 -0.05642767250537872 0.03848235681653023
4.328698635101318 -2.0600483417510986 0.1029289960861206
2.4055213928222656 -2.8105385303497314 0.06586524844169617
1.7841521501541138 1.9321136474609375 0.025245798751711845
2.114075183868408 -0.04908258840441704 0.03875723108649254
4.349832534790039 -2.050586462020874 0.10073303431272507
2.389718770980835 -2.7714483737945557 0.06259841471910477
1.7946182489395142 1.956424593925476 0.027802588418126106
2.1092278957366943 -0.0419723279774189 0.03866560384631157
4.361169815063477 -2.0382821559906006 0.09915736317634583
2.379267454147339 -2.740896463394165 0.05891798064112663
2.0226640701293945 2.222099542617798 0.033565472811460495
2.190547466278076 0.9424923658370972 0.037878163158893585
2.0993707180023193 -0.03407905995845795 0.03848235681653023
4.391355037689209 -2.0328123569488525 0.09629392623901367
2.3761723041534424 -2.717149257659912 0.0548134483397007
2.0413010120391846 2.259152412414551 0.036669351160526276
2.0994906425476074 -0.025651393458247185 0.03848235681653023
2.3705601692199707 -2.688872814178467 0.05130569264292717
2.022974729537964 2.255434036254883 0.03860389441251755
2.099583864212036 -0.017956316471099854 0.037749435752630234
3.6238648891448975 -1.6438580751419067 0.07571130990982056
2.3662121295928955 -2.6660659313201904 0.04853086918592453
1.9814306497573853 2.2254726886749268 0.04004712030291557
2.094632863998413 -0.010967572219669819 0.03765955939888954
3.633594512939453 -1.6345268487930298 0.07441563904285431
2.3522040843963623 -2.631721258163452 0.045590221881866455
1.9648596048355103 2.2200887203216553 0.04191530495882034
2.0996580123901367 -0.003298137802630663 0.037749435752630234
3.630462646484375 -1.6171454191207886 0.07214795053005219
2.3551688194274902 -2.615679979324341 0.042389530688524246
1.9566844701766968 2.2272472381591797 0.04450247809290886
1.9681639671325684 0.8890736699104309 0.03845106065273285
2.094651460647583 0.0036558606661856174 0.0380251482129097
3.6592588424682617 -1.6139254570007324 0.07120567560195923
2.347963809967041 -2.5885355472564697 0.03964866325259209
2.099623203277588 0.011360165663063526 0.03811589628458023
2.3473405838012695 -2.568864583969116 0.03644181042909622
1.0470160245895386 1.2095613479614258 0.02680700272321701
1.7481461763381958 0.8051666617393494 0.03628324717283249
2.0945684909820557 0.01901022344827652 0.0380251482129097
2.3364436626434326 -2.5381946563720703 0.03311711177229881
1.0195468664169312 1.1870079040527344 0.027586117386817932
1.8494226932525635 0.8600432872772217 0.03951876237988472
2.0994834899902344 0.02675076574087143 0.03811589628458023
4.697188854217529 -2.0103070735931396 0.08472312241792679
2.3321475982666016 -2.5149660110473633 0.030530638992786407
0.9957133531570435 1.1678928136825562 0.02839663065969944
2.0943665504455566 0.034363459795713425 0.03839073330163956
2.334540843963623 -2.499112367630005 0.02745722234249115
0.9885912537574768 1.1673579216003418 0.029372084885835648
2.0892281532287598 0.04193912446498871 0.03829910606145859
4.748748779296875 -1.9913157224655151 0.08089268952608109
2.3265652656555176 -2.4723470211029053 0.024886425584554672
0.9842891693115234 1.170953392982483 0.03070700541138649
1.61884605884552 0.7745791673660278 0.0372784249484539
2.0790648460388184 0.04935894533991814 0.038115859031677246
4.7375712394714355 -1.9662423133850098 0.07878804951906204
2.315412759780884 -2.4416422843933105 0.021730070933699608
0.9895808100700378 1.186047077178955 0.03235603868961334
1.6204795837402344 0.7826727628707886 0.03832453489303589
2.0938620567321777 0.057389676570892334 0.03839073330163956
4.730897903442383 -1.9431768655776978 0.07677240669727325
2.3105413913726807 -2.4186885356903076 0.019265711307525635
0.9888173937797546 1.1931533813476562 0.033542610704898834
2.093632698059082 0.06542929261922836 0.0380251482129097
4.719510555267334 -1.9183138608932495 0.07291562110185623
2.3090004920959473 -2.399406671524048 0.016273384913802147
0.9966976642608643 1.212536334991455 0.0353451669216156
4.717256546020508 -1.897281527519226 0.0709976851940155
2.3003857135772705 -2.3729851245880127 0.013843909837305546
1.008030652999878 1.2355273962020874 0.0370212122797966
4.715576648712158 -1.8746494054794312 0.06820105016231537
2.2994182109832764 -2.3530125617980957 0.010335823521018028
4.290449142456055 0.18132340908050537 0.07870558649301529
4.717136859893799 -1.8571785688400269 0.06636424362659454
2.2966926097869873 -2.3346848487854004 0.008573919534683228
1.7082242965698242 0.8643835783004761 0.04511694610118866
4.289755821228027 0.19704747200012207 0.07870558649301529
4.70529842376709 -1.832627296447754 0.06433981657028198
2.2841224670410156 -2.3049473762512207 0.005097231827676296
1.6964222192764282 0.8654893636703491 0.04587852582335472
4.283997535705566 0.21252049505710602 0.07936257123947144
4.702990531921387 -1.8109618425369263 0.0624532625079155
2.2752926349639893 -2.2784717082977295 0.0033719756174832582
1.6932169198989868 0.8716902136802673 0.04687568172812462
4.28318977355957 0.22822068631649017 0.07936257123947144
4.690927028656006 -1.7866017818450928 0.060453251004219055
2.2836294174194336 -2.270118236541748 0.0005619960138574243
1.7121670246124268 0.889399528503418 0.04850108176469803
4.282310485839844 0.2439170628786087 0.08011119067668915
4.697463512420654 -1.7694040536880493 0.05870106443762779
2.281257152557373 -2.2511963844299316 -0.0022375117987394333
4.276398181915283 0.2593082785606384 0.0800178200006485
4.685194969177246 -1.7452014684677124 0.05672198161482811
2.268061399459839 -2.221825361251831 -0.0038789932150393724
1.7585780620574951 0.9299405813217163 0.05209212750196457
4.270416259765625 0.27465856075286865 0.08067131787538528
4.691578388214111 -1.7280244827270508 0.05497676134109497
2.2690176963806152 -2.2065234184265137 -0.006076359655708075
1.7639533281326294 0.9410722255706787 0.05340072885155678
4.259391784667969 0.28962934017181396 0.08122795820236206
4.683804035186768 -1.7056910991668701 0.05307183787226677
2.255502700805664 -2.1773529052734375 -0.008207401260733604
1.7648601531982422 0.9498819708824158 0.054933466017246246
4.258301734924316 0.30523887276649475 0.08122795820236206
4.680633544921875 -1.6851319074630737 0.05122886970639229
2.2602298259735107 -2.1652116775512695 -0.01092573907226324
1.5629615783691406 2.0636096000671387 0.08225748687982559
1.7613412141799927 0.9563302397727966 0.055982884019613266
4.252155303955078 0.3204675018787384 0.08187708258628845
4.672663688659668 -1.6629419326782227 0.049343135207891464
2.2608978748321533 -2.1500160694122314 -0.013068986125290394
1.7621819972991943 0.9651662111282349 0.05717450752854347
4.250951766967773 0.33605024218559265 0.08187708258628845
4.61271333694458 -1.6225831508636475 0.0469399057328701
2.261484146118164 -2.1348438262939453 -0.015198266133666039
1.7586060762405396 0.9716038703918457 0.058226507157087326
4.24469518661499 0.351215124130249 0.08252447843551636
2.2473926544189453 -2.106017827987671 -0.01773942820727825
1.7550064325332642 0.9780279994010925 0.059278491884469986
4.248345375061035 0.367199569940567 0.08336558192968369
2.2441043853759766 -2.087541341781616 -0.019792767241597176
1.7254548072814941 2.3472044467926025 0.10325738042593002
1.7470258474349976 0.9819895625114441 0.06018038094043732
4.241991996765137 0.38231930136680603 0.08326784521341324
2.2443833351135254 -2.0725080966949463 -0.021860934793949127
1.708780288696289 2.340747117996216 0.10474931448698044
4.230593681335449 0.39692914485931396 0.08381400257349014
2.2412538528442383 -2.0537309646606445 -0.023875858634710312
1.7080943584442139 2.359639883041382 0.10834165662527084
4.234071254730225 0.4129161536693573 0.08465509861707687
4.456900119781494 -1.4757049083709717 0.036874063313007355
2.2339587211608887 -2.0320334434509277 -0.025827066972851753
4.23748779296875 0.4289339780807495 0.08549793064594269
4.452780723571777 -1.4562532901763916 0.035977862775325775
2.2376630306243896 -2.02046537399292 -0.02841528318822384
2.4742166996002197 3.4700047969818115 0.16595546901226044
4.2309160232543945 0.4439406394958496 0.08539758622646332
4.22972297668457 -1.3661633729934692 0.03258325532078743
2.2264225482940674 -1.9955514669418335 -0.030266983434557915
2.4556264877319336 3.470773935317993 0.16927668452262878
4.234214782714844 0.4599829316139221 0.08624129742383957
4.244239330291748 -1.3536933660507202 0.031101513653993607
2.2262349128723145 -1.980716586112976 -0.032246075570583344
2.442802906036377 3.479628324508667 0.17298687994480133
4.227518081665039 0.4749393165111542 0.0868825614452362
4.196723937988281 -1.3216115236282349 0.029181690886616707
2.2188143730163574 -1.9589027166366577 -0.03409599885344505
2.4083259105682373 3.4548237323760986 0.17430080473423004
4.22576379776001 0.490432471036911 0.08614008128643036
4.201544284820557 -1.3062223196029663 0.028413763269782066
2.2146804332733154 -1.9408553838729858 -0.03597906604409218
2.387017011642456 3.4511499404907227 0.1780748963356018
4.218898296356201 0.5053137540817261 0.0897468850016594
4.273221969604492 -1.3113497495651245 0.02886579930782318
2.2104482650756836 -1.9228683710098267 -0.03732983395457268
2.3685922622680664 3.4514827728271484 0.18203464150428772
3.824971914291382 2.3173980712890625 0.15773634612560272
4.226955413818359 0.5220006108283997 0.08921470493078232
4.335670471191406 -1.3123195171356201 0.02609078213572502
2.209892749786377 -1.9082014560699463 -0.039240799844264984
2.3474018573760986 3.4476215839385986 0.18502280116081238
3.7609481811523438 2.297494888305664 0.15775282680988312
4.210090637207031 0.535591185092926 0.09112274646759033
4.354823589324951 -1.3007124662399292 0.0261771772056818
2.1978707313537598 -1.8838030099868774 -0.040925733745098114
2.330270290374756 3.4469759464263916 0.18821066617965698
3.8162240982055664 2.3505120277404785 0.1635647863149643
4.203350067138672 0.5489041209220886 0.09027557075023651
4.278041839599609 -1.2607190608978271 0.023352399468421936
2.2050657272338867 -1.8753310441970825 -0.04294661432504654
2.3024184703826904 3.4354190826416016 0.19069001078605652
3.782041549682617 2.3486220836639404 0.16480176150798798
4.201065540313721 0.5657665729522705 0.09249510616064072
4.297037124633789 -1.2492179870605469 0.02343093790113926
2.200439929962158 -1.8575419187545776 -0.04473447799682617
2.2826201915740967 3.4304213523864746 0.19359496235847473
4.189076900482178 0.5797920823097229 0.09153886884450912
4.282372951507568 -1.2279506921768188 0.020993614569306374
2.19954514503479 -1.843022108078003 -0.04658253490924835
2.261664628982544 3.4260895252227783 0.19719012081623077
1.6266578435897827 1.026741623878479 0.07356080412864685
3.2663564682006836 0.4642897844314575 0.07314075529575348
4.306090354919434 -1.217689037322998 0.02108786255121231
2.202416181564331 -1.8317301273345947 -0.048501256853342056
2.229844570159912 3.4049651622772217 0.1990627944469452
1.5806881189346313 1.005846381187439 0.07295815646648407
3.2647864818573 0.475117027759552 0.07371657341718674
4.363509178161621 -1.2166719436645508 0.019765788689255714
2.1978390216827393 -1.813692331314087 -0.05023670196533203
2.385908365249634 3.6725733280181885 0.21879258751869202
1.6654316186904907 1.0679570436477661 0.07877034693956375
4.192473411560059 0.6258212327957153 0.09545446187257767
4.363115310668945 -1.1993446350097656 0.02053372748196125
2.2005836963653564 -1.8024399280548096 -0.05163796991109848
2.216654062271118 3.4369382858276367 0.20717808604240417
1.6195263862609863 1.0469168424606323 0.07745435833930969
4.18519401550293 0.6404247283935547 0.09608085453510284
4.2953081130981445 -1.1629852056503296 0.017086731269955635
2.2032675743103027 -1.7911854982376099 -0.05352956801652908
2.2092862129211426 3.4532365798950195 0.21269264817237854
1.6243613958358765 1.0576963424682617 0.07954724878072739
4.187740325927734 0.6565314531326294 0.09693411737680435
4.222243785858154 -1.1266090869903564 0.01754225790500641
2.213686227798462 -1.7862197160720825 -0.055113181471824646
2.196514368057251 3.4611525535583496 0.21627004444599152
1.5783019065856934 1.0367504358291626 0.07881540060043335
4.180319786071777 0.6710754632949829 0.09903666377067566
4.211843490600586 -1.107313871383667 0.015961872413754463
2.2244081497192383 -1.7808125019073486 -0.05670200288295746
2.1730728149414062 3.452117443084717 0.2187761515378952
1.5873191356658936 1.0502251386642456 0.08043750375509262
4.177849292755127 0.6863954663276672 0.09829771518707275
4.240077972412109 -1.0981378555297852 0.01528905425220728
2.238708257675171 -1.7788358926773071 -0.05939626321196556
2.142991781234741 3.4295036792755127 0.22043080627918243
1.6125155687332153 1.0754141807556152 0.08293022215366364
4.200475692749023 -1.0714685916900635 0.01361878216266632
2.2491135597229004 -1.773694634437561 -0.06099988520145416
2.1185708045959473 3.420902967453003 0.22355610132217407
1.5794950723648071 1.0617767572402954 0.08276276290416718
4.204376697540283 -1.0560665130615234 0.012862185016274452
2.107091188430786 3.427708387374878 0.22776968777179718
1.600344181060791 1.0843292474746704 0.08575309067964554
4.227634429931641 -1.0454506874084473 0.012921526096761227
2.0891916751861572 3.4266786575317383 0.23140738904476166
1.5633106231689453 1.0676181316375732 0.08530205488204956
4.103257179260254 0.7360746264457703 0.10188218951225281
4.192574501037598 -1.02048921585083 0.012049738317728043
4.422574043273926 -3.4083006381988525 -0.12865778803825378
2.0687859058380127 3.4213600158691406 0.23333527147769928
1.551108956336975 1.0676426887512207 0.08616653829813004
4.1964640617370605 -1.00438392162323 0.011296630837023258
4.446875095367432 -3.401122808456421 -0.1329117864370346
2.0484259128570557 3.4159018993377686 0.23593726754188538
1.506109595298767 1.0448254346847534 0.08484073728322983
4.180653095245361 -0.984413206577301 0.00974503718316555
4.467217445373535 -3.3908028602600098 -0.13608567416667938
2.0306413173675537 3.4145572185516357 0.2401997447013855
1.5267808437347412 1.06747567653656 0.08752839267253876
4.2085862159729 -0.9747239947319031 0.010555739514529705
4.4921064376831055 -3.382587432861328 -0.14037534594535828
1.9887593984603882 3.369515895843506 0.239993155002594
1.555442452430725 1.096024751663208 0.09139833599328995
4.1877570152282715 -0.9537412524223328 0.00974503718316555
4.528458118438721 -3.3840231895446777 -0.14309735596179962
1.9762897491455078 3.376600503921509 0.2434074878692627
1.5188008546829224 1.0785578489303589 0.0904545858502388
4.152194499969482 -0.9296472668647766 0.008169008418917656
4.552793979644775 -3.376274347305298 -0.1474340260028839
1.956235408782959 3.3706142902374268 0.24723754823207855
1.514785647392273 1.0840802192687988 0.09175504744052887
4.189754009246826 -0.921943724155426 0.008984948508441448
4.573147773742676 -3.365459442138672 -0.14967606961727142
1.921360731124878 3.338651418685913 0.24775010347366333
1.4825845956802368 1.0688804388046265 0.09130910784006119
4.163783550262451 -0.9002418518066406 0.008178607560694218
4.614209175109863 -3.368441104888916 -0.1545867621898651
1.9213234186172485 3.3670730590820312 0.25409114360809326
1.4830076694488525 1.0766775608062744 0.09315790235996246
4.1964006423950195 -0.8912070393562317 0.008236203342676163
4.634575843811035 -3.357339382171631 -0.15685492753982544
1.8879131078720093 3.3341591358184814 0.25449177622795105
1.4826499223709106 1.0855331420898438 0.09469461441040039
2.531873941421509 0.5409381985664368 0.0714133083820343
4.175318717956543 -0.869988203048706 0.007443825714290142
4.667051792144775 -3.3548521995544434 -0.16155259311199188
1.8706424236297607 3.332082748413086 0.25849777460098267
1.474928855895996 1.0874112844467163 0.09667613357305527
2.5298376083374023 0.5502063632011414 0.07276890426874161
4.659505367279053 -3.3223659992218018 -0.16284778714179993
1.8558584451675415 3.334319591522217 0.26215657591819763
1.4588279724121094 1.0838162899017334 0.09778905659914017
2.5326335430145264 0.5605438947677612 0.07472030818462372
4.696084022521973 -3.322552442550659 -0.16570918262004852
1.4627701044082642 1.0950884819030762 0.09992099553346634
2.5256474018096924 0.5687161087989807 0.07593188434839249
4.622282028198242 -3.2449800968170166 -0.16465722024440765
1.8361722230911255 3.327592611312866 0.2677621841430664
1.4587032794952393 1.0920438766479492 0.1012381836771965
2.530444383621216 0.5697962045669556 0.07879474014043808
4.633556842803955 -3.25531005859375 -0.1591644287109375
1.858149766921997 3.3384361267089844 0.26650044322013855
1.4707393646240234 1.0926657915115356 0.10115335881710052
2.522756814956665 0.5583578944206238 0.07849109917879105
4.617626667022705 -3.2694618701934814 -0.15408656001091003
1.8850923776626587 3.3578217029571533 0.26657170057296753
1.470744252204895 1.084326148033142 0.10023991018533707
2.5296289920806885 0.5501610040664673 0.07999839633703232
4.6586127281188965 -3.324183225631714 -0.15086187422275543
1.9147287607192993 3.381516933441162 0.26491954922676086
1.5029422044754028 1.099584698677063 0.1015070304274559
2.5365021228790283 0.5419269800186157 0.08060553669929504
4.160133361816406 -0.869097113609314 0.02151109091937542
4.658092021942139 -3.3508782386779785 -0.14624974131584167
1.9272009134292603 3.374635934829712 0.2622065544128418
1.5191112756729126 1.102889060974121 0.10166817158460617
2.6021502017974854 0.5455137491226196 0.08262455463409424
4.1569085121154785 -0.8843364119529724 0.02373635396361351
4.621599197387695 -3.3503994941711426 -0.14050401747226715
1.94096040725708 3.372708559036255 0.25982657074928284
1.474560260772705 1.0623130798339844 0.09778905659914017
2.657991886138916 0.5470578670501709 0.08385932445526123
4.183112621307373 -0.9051851630210876 0.024650894105434418
4.590355396270752 -3.351027727127075 -0.13592113554477692
1.9559264183044434 3.370081901550293 0.256759375333786
1.523179054260254 1.088881492614746 0.09943709522485733
4.145249843597412 -0.9144265055656433 0.02741282247006893
4.572347164154053 -3.3673312664031982 -0.13084623217582703
1.968355417251587 3.363044261932373 0.2540390193462372
1.5068254470825195 1.0688672065734863 0.09746639430522919
4.210165023803711 -0.9449418187141418 0.02861795388162136
4.539976119995117 -3.36922550201416 -0.126323401927948
2.003606081008911 3.394670248031616 0.2535266578197479
1.5389783382415771 1.0840214490890503 0.0983247309923172
4.196909427642822 -0.9581373929977417 0.030805671587586403
4.511670112609863 -3.3739326000213623 -0.12096034735441208
2.0391156673431396 3.426084518432617 0.2529357373714447
1.5388764142990112 1.0755327939987183 0.09740857034921646
4.178752899169922 -0.9701200723648071 0.03144706040620804
4.487363338470459 -3.3814709186553955 -0.11671573668718338
2.059453248977661 3.431574583053589 0.25109148025512695
1.5715872049331665 1.0898425579071045 0.09788687527179718
4.204349517822266 -0.9923166036605835 0.033928848803043365
4.466464042663574 -3.392688751220703 -0.11161340773105621
2.068351984024048 3.420642375946045 0.24729014933109283
1.5632853507995605 1.0756218433380127 0.0957953929901123
4.220296382904053 -1.0116456747055054 0.035600822418928146
4.435380935668945 -3.392331838607788 -0.10819230228662491
2.0914011001586914 3.430302619934082 0.24431799352169037
1.5919766426086426 1.086787462234497 0.0969715267419815
4.117497444152832 0.737887442111969 0.1263435184955597
4.240843296051025 -1.0330220460891724 0.03656770661473274
4.411097049713135 -3.3994557857513428 -0.1040138304233551
2.111889600753784 3.435514211654663 0.24241317808628082
1.5751450061798096 1.0672553777694702 0.09438714385032654
4.16937780380249 0.7314228415489197 0.12859180569648743
4.226937294006348 -1.0476272106170654 0.03876412287354469
2.1298365592956543 3.4364140033721924 0.23948517441749573
1.583245038986206 1.0642975568771362 0.09330305457115173
4.17697811126709 0.7169855237007141 0.12800393998622894
4.218220233917236 -1.061892032623291 0.03871961683034897
2.2394213676452637 -1.7540380954742432 -0.048659153282642365
2.1636879444122314 3.4626245498657227 0.23828741908073425
1.5705294609069824 1.0474129915237427 0.09199658781290054
4.179599761962891 0.7016750574111938 0.12726424634456635
4.209435939788818 -1.0761018991470337 0.040950048714876175
2.2526257038116455 -1.7777401208877563 -0.047083377838134766
2.1764745712280273 3.454845666885376 0.23472417891025543
1.6410527229309082 1.0857772827148438 0.09451691061258316
4.17719030380249 0.6855384707450867 0.12785300612449646
4.316763401031494 -1.1204109191894531 0.04281226918101311
2.2304675579071045 -1.773558497428894 -0.04476585239171982
2.193356513977051 3.4561767578125 0.23244041204452515
1.569920301437378 1.0304605960845947 0.08888788521289825
4.184630870819092 0.6710184216499329 0.12726424634456635
4.2062482833862305 -1.108197808265686 0.04327472299337387
2.219763994216919 -1.7790024280548096 -0.042701367288827896
2.208808422088623 3.4524893760681152 0.229147270321846
1.6197385787963867 1.054686188697815 0.09115098416805267
4.187105655670166 0.6556832194328308 0.12578487396240234
4.2939066886901855 -1.1481393575668335 0.04654707759618759
2.209366798400879 -1.7840080261230469 -0.04014821723103523
1.6194509267807007 1.0460668802261353 0.08956952393054962
4.184519290924072 0.6395740509033203 0.12637537717819214
4.221900463104248 -1.1462736129760742 0.047341130673885345
2.2028346061706543 -1.7921110391616821 -0.03816571086645126
2.217942714691162 3.4114203453063965 0.22037115693092346
1.5854640007019043 1.0158971548080444 0.08649519085884094
4.241763591766357 -1.1683763265609741 0.048379551619291306
2.204005002975464 -1.806528091430664 -0.0363105908036232
2.2496941089630127 3.4326603412628174 0.2186824381351471
1.6060893535614014 1.0208288431167603 0.08608435094356537
3.2543716430664062 0.47302135825157166 0.0970279797911644
4.309665203094482 -1.2040908336639404 0.050766173750162125
2.204780101776123 -1.8213616609573364 -0.034441493451595306
2.273352861404419 3.4411823749542236 0.2168673425912857
1.6394225358963013 1.0335986614227295 0.08698944747447968
4.1963114738464355 0.5942350029945374 0.12430547177791595
4.2426629066467285 -1.2021522521972656 0.05233770236372948
2.2019548416137695 -1.8326470851898193 -0.032001692801713943
2.2943778038024902 3.4454827308654785 0.21332022547721863
3.8116352558135986 2.38362455368042 0.19942578673362732
4.208384990692139 0.5802189111709595 0.12385720014572144
4.218989849090576 -1.2121669054031372 0.05363263189792633
2.218226432800293 -1.8599939346313477 -0.030315816402435303
2.3142173290252686 3.4504191875457764 0.21119175851345062
3.8196067810058594 2.3710262775421143 0.1970718801021576
4.2104620933532715 0.5647876262664795 0.12459865212440491
4.33015251159668 -1.25966477394104 0.05588575452566147
2.212061882019043 -1.8673527240753174 -0.028294827789068222
2.3409552574157715 3.4627814292907715 0.20808395743370056
3.773899555206299 2.321718454360962 0.19113200902938843
4.212525367736816 0.5493544936180115 0.12385720014572144
4.372991561889648 -1.291189193725586 0.05809694901108742
2.215985059738159 -1.8859511613845825 -0.02640995942056179
2.3593366146087646 3.4625511169433594 0.2056560516357422
3.82423996925354 2.33524227142334 0.19250476360321045
4.219490051269531 0.5345420241355896 0.12326059490442276
4.359075546264648 -1.3028112649917603 0.06035171076655388
2.2207906246185303 -1.9034477472305298 -0.02450413443148136
2.3777668476104736 3.4622604846954346 0.20248107612133026
3.8285858631134033 2.318674087524414 0.18994657695293427
4.221442222595215 0.519075870513916 0.12251826375722885
4.286581993103027 -1.3007289171218872 0.06098690256476402
2.220710515975952 -1.918895959854126 -0.022538959980010986
2.4013047218322754 3.4705121517181396 0.19976133108139038
4.218353748321533 0.503008246421814 0.12237429618835449
4.239211082458496 -1.3017222881317139 0.06192227080464363
2.221890926361084 -1.932822346687317 -0.02055981010198593
2.425515651702881 3.4781885147094727 0.1977466344833374
3.7684192657470703 2.2446463108062744 0.18077196180820465
4.220147609710693 0.4875413179397583 0.12311575561761856
4.248260498046875 -1.3231858015060425 0.06290829926729202
2.2216451168060303 -1.9483305215835571 -0.01805095560848713
2.449833631515503 3.4857609272003174 0.194960355758667
3.7982094287872314 2.2435712814331055 0.17949166893959045
4.226894378662109 0.4726282060146332 0.12251826375722885
4.271968364715576 -1.3477661609649658 0.06489605456590652
2.232891082763672 -1.9734119176864624 -0.015603172592818737
2.474238872528076 3.4931998252868652 0.19213905930519104
3.815082550048828 2.2347166538238525 0.17835485935211182
4.233588695526123 0.4576721489429474 0.12191902101039886
4.400788307189941 -1.4044708013534546 0.07014906406402588
2.233811616897583 -1.9874576330184937 -0.014089991338551044
3.857888698577881 2.240839958190918 0.17763110995292664
4.230287551879883 0.44163545966148376 0.12103360146284103
4.461684226989746 -1.4436649084091187 0.0728488564491272
2.236989736557007 -2.0064315795898438 -0.011538342572748661
1.709418535232544 2.376281261444092 0.12678299844264984
3.8531413078308105 2.219235420227051 0.17548224329948425
4.2318572998046875 0.4261256158351898 0.12177593261003494
4.375585079193115 -1.4335434436798096 0.07233219593763351
2.240755796432495 -2.0246782302856445 -0.009487594477832317
1.709397554397583 2.3579726219177246 0.123084157705307
3.8613810539245605 2.2051732540130615 0.17160183191299438
4.238406658172607 0.41109874844551086 0.12043260782957077
2.248114824295044 -2.04634428024292 -0.007428113371133804
1.714312195777893 2.34832501411438 0.12084324657917023
3.847724676132202 2.178711175918579 0.16986604034900665
4.234888076782227 0.39509522914886475 0.12103360146284103
2.252018451690674 -2.0643179416656494 -0.00533197820186615
3.851404905319214 2.16219162940979 0.16736149787902832
4.241306304931641 0.38001883029937744 0.12043260782957077
2.255459785461426 -2.0827362537384033 -0.003214895958080888
3.8419413566589355 2.138396978378296 0.16353458166122437
4.24267053604126 0.36447110772132874 0.12043260782957077
2.254401445388794 -2.098588466644287 0.0
1.5877196788787842 2.1254405975341797 0.10330874472856522
4.248980522155762 0.34932973980903625 0.11982987821102142
4.626753330230713 -1.6112060546875 0.08466171473264694
2.257636070251465 -2.1170973777770996 0.0016205381834879518
1.5737888813018799 2.092284679412842 0.0996621698141098
4.245270252227783 0.33336448669433594 0.11894617974758148
4.687376022338867 -1.6497660875320435 0.08760575205087662
2.2724175453186035 -2.145164966583252 0.003272491740062833
1.5905325412750244 2.098489761352539 0.09885406494140625
4.256432056427002 0.3185485899448395 0.1192253977060318
4.6901044845581055 -1.6719160079956055 0.08952009677886963
2.274651288986206 -2.164607286453247 0.006028363015502691
1.7517297267913818 0.9416323304176331 0.0697971060872078
4.257591247558594 0.3029473125934601 0.11848042905330658
4.688618183135986 -1.6907800436019897 0.0913497805595398
2.2735369205474854 -2.180243492126465 0.008246670477092266
4.268625736236572 0.28801196813583374 0.11950460821390152
4.696417808532715 -1.7130703926086426 0.09511470794677734
2.2727153301239014 -2.195502281188965 0.011581978760659695
1.7586277723312378 0.9287889003753662 0.06840866059064865
4.2746405601501465 0.27268290519714355 0.11964421719312668
4.704146862030029 -1.735451340675354 0.0971502959728241
2.286146402359009 -2.224733352661133 0.013918954879045486
4.260664939880371 0.25611528754234314 0.11848042905330658
4.697722434997559 -1.752669334411621 0.09890051931142807
2.2815401554107666 -2.236590623855591 0.016171278432011604
1.7777246236801147 2.257462978363037 0.09582263976335526
1.6900426149368286 0.8767834901809692 0.06349290907382965
4.286526203155518 0.24190551042556763 0.11917410790920258
4.705265522003174 -1.7751567363739014 0.10095178335905075
2.283989429473877 -2.2554666996002197 0.019048411399126053
1.7417947053909302 2.196810245513916 0.09055376052856445
1.6929701566696167 0.8711893558502197 0.06249600648880005
4.287404537200928 0.22619406878948212 0.11842478066682816
4.703364849090576 -1.7941595315933228 0.10280932486057281
2.2934234142303467 -2.2814464569091797 0.020890573039650917
1.7374064922332764 2.174854040145874 0.08747895807027817
4.293196201324463 0.21072342991828918 0.11856263875961304
4.711349964141846 -1.8151251077651978 0.1048780158162117
2.2995669841766357 -2.303583860397339 0.022724000737071037
1.748537540435791 2.1724116802215576 0.08568917214870453
4.713306427001953 -1.8376414775848389 0.10685158520936966
2.307870864868164 -2.330538511276245 0.026905693113803864
1.7533866167068481 2.1621639728546143 0.08310634642839432
4.725756645202637 -1.860572338104248 0.10904677957296371
2.310638189315796 -2.3488612174987793 0.02875393256545067
1.7360471487045288 2.1248157024383545 0.07951828837394714
2.0977025032043457 0.07985229045152664 0.057169921696186066
4.72750186920166 -1.8832131624221802 0.11103775352239609
2.3081560134887695 -2.365255355834961 0.03172523155808449
1.7621691226959229 2.1422488689422607 0.07845082134008408
2.10797119140625 0.07250691950321198 0.057442158460617065
4.739413261413574 -1.907153844833374 0.11325734853744507
2.321164131164551 -2.3944191932678223 0.03434136509895325
1.7675983905792236 2.131352186203003 0.07637640088796616
2.1032068729400635 0.06462620943784714 0.058040551841259
4.745553493499756 -1.9317951202392578 0.11627258360385895
2.325374126434326 -2.4181101322174072 0.03747493028640747
1.8067412376403809 2.1639063358306885 0.07480301707983017
1.5214054584503174 0.734166145324707 0.04925145208835602
2.1034398078918457 0.05765219032764435 0.0569387823343277
4.7483296394348145 -1.9513055086135864 0.11829143762588501
2.330716848373413 -2.4406609535217285 0.03946535661816597
1.8018149137496948 2.1419994831085205 0.07280692458152771
1.6368224620819092 0.7824783325195312 0.0525776669383049
2.1036343574523926 0.04920753836631775 0.057673294097185135
4.754267692565918 -1.976090669631958 0.12043419480323792
2.341500997543335 -2.471743583679199 0.04338160157203674
1.8456217050552368 2.1770527362823486 0.07174642384052277
2.103820323944092 0.04149739071726799 0.0569387823343277
4.760780334472656 -1.9992924928665161 0.12258739769458771
2.346104383468628 -2.494854688644409 0.04602731019258499
1.8853204250335693 2.2089877128601074 0.07046861201524734
2.103968381881714 0.033786386251449585 0.05657152831554413
4.670533180236816 -1.9815616607666016 0.12310780584812164
2.350562334060669 -2.5180249214172363 0.0493021197617054
1.9716579914093018 2.2930731773376465 0.0707404688000679
1.9626853466033936 0.9118810892105103 0.059694912284612656
2.1140644550323486 0.026936549693346024 0.05684027448296547
4.617947101593018 -1.9773468971252441 0.12364845722913742
2.3557729721069336 -2.5404434204101562 0.05200711265206337
1.9768239259719849 2.2821080684661865 0.06746184080839157
1.9887639284133911 0.9151498079299927 0.058473799377679825
2.1141555309295654 0.01844995655119419 0.05684027448296547
2.3590757846832275 -2.564577341079712 0.054131824523210526
1.9424699544906616 2.2259109020233154 0.06446298211812973
2.0194034576416016 0.9202951192855835 0.058887481689453125
2.1092066764831543 0.011412017978727818 0.05670589953660965
2.3572769165039062 -2.5797386169433594 0.05672681704163551
2.114234209060669 0.002952029462903738 0.05684027448296547
3.621194362640381 -1.5994024276733398 0.10227887332439423
2.3602981567382812 -2.603959083557129 0.0601184219121933
2.017662525177002 2.2797505855560303 0.0616443045437336
2.114243507385254 -0.0033210485707968473 0.05647126957774162
3.620403528213501 -1.61342191696167 0.10379159450531006
2.3645431995391846 -2.6270132064819336 0.06292801350355148
