# .PCD v0.7 - Point Cloud Data file format
VERSION 0.7
FIELDS x y z
SIZE 4 4 4
TYPE F F F
COUNT 1 1 1
WIDTH 844
HEIGHT 1
VIEWPOINT 0 0 0 1 0 0 0
POINTS 844
DATA ascii
3.2017979621887207 2.586294412612915 0.341279536485672
2.5630388259887695 -0.4459391236305237 0.4185628294944763
3.9736554622650146 -2.688344717025757 0.7761852145195007
2.165395736694336 -3.4924259185791016 0.5431827306747437
3.1930649280548096 2.5967845916748047 0.34343457221984863
2.5454039573669434 -0.43326514959335327 0.414033979177475
3.9756217002868652 -2.6684865951538086 0.7720811367034912
2.173126697540283 -3.476379156112671 0.539010226726532
3.1834328174591064 2.608394145965576 0.3448712229728699
2.556640625 -0.4260002374649048 0.41561728715896606
4.002035140991211 -2.6649909019470215 0.7735866904258728
2.186659097671509 -3.468327045440674 0.5361480116844177
3.177600145339966 2.6231393814086914 0.34672701358795166
2.568002223968506 -0.4182257056236267 0.41674649715423584
3.991629123687744 -2.636995315551758 0.7662757635116577
2.202216386795044 -3.4647886753082275 0.5339303016662598
3.1487185955047607 2.6187617778778076 0.3460603356361389
2.5794131755828857 -0.4103850722312927 0.41741639375686646
3.980954170227051 -2.609034538269043 0.7598297595977783
2.207075595855713 -3.444481372833252 0.5291399359703064
3.819453477859497 1.0642551183700562 0.5283335447311401
2.585850954055786 -0.40169739723205566 0.41774871945381165
4.0026774406433105 -2.6033437252044678 0.7605277895927429
2.2198853492736816 -3.436678409576416 0.5262838006019592
3.8012187480926514 1.0742034912109375 0.5263522863388062
2.60202693939209 -0.3949132561683655 0.41919469833374023
4.016786575317383 -2.5916199684143066 0.7579771280288696
2.232666015625 -3.428826093673706 0.523427426815033
3.788017511367798 1.0840504169464111 0.5257191061973572
4.064029693603516 -2.6010544300079346 0.762498140335083
2.2399749755859375 -3.4126312732696533 0.5193086862564087
2.48201322555542 2.125840187072754 0.28073787689208984
3.8026726245880127 1.104778528213501 0.5283642411231995
4.073760032653809 -2.5862841606140137 0.7608137726783752
2.258737564086914 -3.4125802516937256 0.5177138447761536
3.779881477355957 1.1117628812789917 0.5264068245887756
5.344907283782959 -0.7521290183067322 0.8558564186096191
4.070897579193115 -2.5635809898376465 0.7567983269691467
2.265923500061035 -3.396324634552002 0.5136085152626038
3.078962564468384 2.6765012741088867 0.35405468940734863
3.7710320949554443 1.1241934299468994 0.5257446765899658
5.3574137687683105 -0.7338743805885315 0.8574225306510925
4.114343166351318 -2.5699286460876465 0.7587813138961792
2.2730681896209717 -3.3801331520080566 0.5088059902191162
3.076533317565918 2.6942498683929443 0.35634684562683105
3.775999069213867 1.141479730606079 0.5284459590911865
5.384988784790039 -0.7175543308258057 0.8584933280944824
4.082846164703369 -2.5275275707244873 0.7493782639503479
2.2868175506591797 -3.371274709701538 0.5059621334075928
3.077655792236328 2.715228319168091 0.3605143129825592
3.795393466949463 1.1625416278839111 0.5324581861495972
5.402276039123535 -0.6997156739234924 0.8608346581459045
4.079237937927246 -2.5056400299072266 0.7453943490982056
2.2937064170837402 -3.35489559173584 0.502601683139801
3.0723116397857666 2.728684902191162 0.36166900396347046
3.7631163597106934 1.166318655014038 0.5284696817398071
5.419534683227539 -0.6827245354652405 0.8622225522994995
4.113168716430664 -2.5077338218688965 0.7474876046180725
2.3049678802490234 -3.347486972808838 0.50047367811203
3.0616228580474854 2.740292549133301 0.36453762650489807
3.7775514125823975 1.1859854459762573 0.5325107574462891
5.451714992523193 -0.6664891242980957 0.8649830222129822
4.160610198974609 -2.515786647796631 0.7526903748512268
2.317420244216919 -3.3393027782440186 0.4976361393928528
3.047717571258545 2.748032331466675 0.36624449491500854
5.463629722595215 -0.6476301550865173 0.8684592247009277
4.102222442626953 -2.459994077682495 0.738781750202179
2.3297932147979736 -3.3309998512268066 0.4955078065395355
3.0522754192352295 2.772491931915283 0.3694617748260498
5.481139183044434 -0.6293427348136902 0.8679093718528748
4.192132472991943 -2.4930660724639893 0.7515801787376404
2.339953660964966 -3.3183248043060303 0.4913596510887146
3.0356194972991943 2.775790214538574 0.37000522017478943
5.4978156089782715 -0.6137641668319702 0.8702403903007507
4.171781539916992 -2.460310459136963 0.7437140345573425
2.3493733406066895 -3.30588960647583 0.48863551020622253
3.031632423400879 2.794572114944458 0.373060017824173
5.524789810180664 -0.5943310856819153 0.8741253614425659
2.362823247909546 -3.296708345413208 0.4858039915561676
3.0149528980255127 2.7977471351623535 0.3735947012901306
5.542125225067139 -0.5756559371948242 0.8735390901565552
3.6811716556549072 -2.135617733001709 0.6489495635032654
2.3739404678344727 -3.2891287803649902 0.48297226428985596
2.993574380874634 2.798398733139038 0.37509873509407043
4.167987823486328 1.4091647863388062 0.596434473991394
5.568578243255615 -0.5597445964813232 0.8774111866950989
3.7403886318206787 -2.1516876220703125 0.6579941511154175
2.3832077980041504 -3.276594877243042 0.4802597165107727
3.0008327960968018 2.826852798461914 0.3788166642189026
4.153419494628906 1.4212234020233154 0.5950911641120911
5.590353488922119 -0.5402593612670898 0.8805088400840759
3.748647928237915 -2.138190984725952 0.6549814939498901
2.4012691974639893 -3.2761170864105225 0.4786011576652527
2.984168767929077 2.8298914432525635 0.3786194622516632
4.158048629760742 1.4382281303405762 0.596434473991394
5.617012977600098 -0.5240409970283508 0.8824116587638855
3.761160135269165 -2.1270954608917236 0.6527153253555298
2.4111273288726807 -3.263213634490967 0.474475622177124
2.9735846519470215 2.8406262397766113 0.3814905285835266
4.143199443817139 1.4501160383224487 0.5966234803199768
5.638730049133301 -0.5052273273468018 0.8845143914222717
3.773343086242676 -2.115769863128662 0.6527070999145508
2.426136016845703 -3.258470058441162 0.47363826632499695
2.962061882019043 2.852447748184204 0.38292598724365234
4.132478713989258 1.4650111198425293 0.5974805355072021
5.660316467285156 -0.4852603077888489 0.8876016736030579
3.790648937225342 -2.105517625808716 0.6526854038238525
2.436461925506592 -3.2450623512268066 0.46951824426651
4.122836112976074 1.4770008325576782 0.5975698828697205
5.671741485595703 -0.4672986567020416 0.8891453146934509
3.8021399974823 -2.0954322814941406 0.6519142389297485
2.450352668762207 -3.2411227226257324 0.4679655432701111
4.12159538269043 1.4944380521774292 0.5997761487960815
5.693271636962891 -0.4460706114768982 0.8922325968742371
3.8147974014282227 -2.0833513736724854 0.6503810286521912
2.4604804515838623 -3.2275047302246094 0.4652685523033142
4.111966133117676 1.506393551826477 0.5990985035896301
5.724588871002197 -0.42942923307418823 0.894859790802002
3.821784734725952 -2.0707435607910156 0.64962238073349
2.4683420658111572 -3.215644121170044 0.46186909079551697
1.8954113721847534 1.8776310682296753 0.25360724329948425
4.096930027008057 1.5179396867752075 0.5992681980133057
5.726208686828613 -0.40945520997047424 0.8938578367233276
3.834104061126709 -2.0592761039733887 0.6473232507705688
2.4833476543426514 -3.210759401321411 0.459601491689682
1.8214517831802368 1.8176409006118774 0.2464139759540558
4.081866264343262 1.5293960571289062 0.5994309782981873
5.717812538146973 -0.38779622316360474 0.8923193216323853
3.841825485229492 -2.045315742492676 0.6458039879798889
2.4952468872070312 -3.2018256187438965 0.45747610926628113
1.7894576787948608 1.8001081943511963 0.24484968185424805
4.066235065460205 1.5421820878982544 0.5995866656303406
5.694671154022217 -0.36326783895492554 0.8884732127189636
3.863229751586914 -2.0368499755859375 0.6472433805465698
2.5082759857177734 -3.192033290863037 0.45464205741882324
1.7519757747650146 1.7741312980651855 0.24096396565437317
4.070153713226318 1.559126377105713 0.6024739146232605
5.681169033050537 -0.3415040075778961 0.88616544008255
3.8745460510253906 -2.0264248847961426 0.6464501619338989
2.5158627033233643 -3.1799252033233643 0.45267021656036377
1.7488270998001099 1.7839739322662354 0.24318906664848328
4.045663833618164 1.5675849914550781 0.5997354388237
5.667529106140137 -0.320833295583725 0.8838577270507812
3.8649306297302246 -2.0025339126586914 0.6420056223869324
2.532456636428833 -3.173489570617676 0.45039060711860657
1.7422175407409668 1.7903108596801758 0.24406108260154724
4.031218528747559 1.5773828029632568 0.5983661413192749
5.649134635925293 -0.3010021448135376 0.8788061141967773
3.832348108291626 -1.9695593118667603 0.63243168592453
2.540001153945923 -3.1613833904266357 0.44771599769592285
1.7326935529708862 1.7923775911331177 0.24531538784503937
4.034426212310791 1.595713496208191 0.6012499332427979
5.625526428222656 -0.27907103300094604 0.8749685287475586
3.817500114440918 -1.9442743062973022 0.628801167011261
2.5486397743225098 -3.1484315395355225 0.44433948397636414
1.729154109954834 1.8025152683258057 0.2471129149198532
4.023756504058838 1.608573317527771 0.6020762324333191
5.606769561767578 -0.25754374265670776 0.8718984723091125
3.7762138843536377 -1.9058486223220825 0.6193376183509827
2.5603575706481934 -3.1393086910247803 0.44151145219802856
1.7252447605133057 1.8129522800445557 0.24891558289527893
4.003864288330078 1.617666244506836 0.6015194058418274
5.5929083824157715 -0.23539017140865326 0.8695959448814392
3.739959716796875 -1.868751883506775 0.6091752052307129
2.5699284076690674 -3.1253440380096436 0.43885114789009094
1.712298035621643 1.8113375902175903 0.2492310106754303
4.002298355102539 1.634122610092163 0.6037182211875916
5.559173583984375 -0.21356189250946045 0.8642232418060303
3.7334814071655273 -1.8484456539154053 0.6070125102996826
2.578341007232666 -3.1122524738311768 0.436195969581604
1.712426781654358 1.8248252868652344 0.2506627142429352
3.9917049407958984 1.6468923091888428 0.6030267477035522
5.545405864715576 -0.19268080592155457 0.8599838614463806
3.7006282806396484 -1.8153222799301147 0.5976467728614807
2.5899736881256104 -3.1030726432800293 0.43266892433166504
1.7028241157531738 1.826694369316101 0.2523437738418579
3.990307569503784 1.6626391410827637 0.6052271723747253
5.525960445404053 -0.1736603081226349 0.8588506579399109
3.67071795463562 -1.786365270614624 0.5919070839881897
2.600886583328247 -3.094128131866455 0.4312579929828644
1.6960575580596924 1.8328585624694824 0.2532154619693756
3.980012893676758 1.6738609075546265 0.6060411930084229
5.512015342712402 -0.15396453440189362 0.8546233177185059
3.6508655548095703 -1.7601830959320068 0.5847728848457336
2.615568161010742 -3.08854079246521 0.4296693503856659
1.6919602155685425 1.8432186841964722 0.25502997636795044
3.95959210395813 1.6840105056762695 0.6039561033248901
5.497770309448242 -0.1314823031425476 0.852325975894928
3.6223535537719727 -1.7285501956939697 0.5776598453521729
2.6216821670532227 -3.070680856704712 0.42579495906829834
1.6853954792022705 1.848981261253357 0.2567766606807709
3.9535973072052 1.696964979171753 0.6069599390029907
5.483058929443359 -0.11293893307447433 0.8519430160522461
3.6056981086730957 -1.7059458494186401 0.5740984082221985
2.6351888179779053 -3.0658538341522217 0.42490822076797485
1.6819144487380981 1.8588011264801025 0.25772467255592346
3.9473509788513184 1.7114441394805908 0.6069599390029907
5.46889591217041 -0.09355036169290543 0.8477312326431274
3.580826759338379 -1.6781439781188965 0.5670419335365295
2.6466498374938965 -3.0564537048339844 0.42138010263442993
1.678232192993164 1.8684511184692383 0.2608661949634552
3.9363222122192383 1.7238292694091797 0.6077615022659302
5.454380512237549 -0.07330602407455444 0.8454338312149048
3.555528163909912 -1.650421380996704 0.5620741248130798
2.657930850982666 -3.0468435287475586 0.41996878385543823
1.668655514717102 1.8702274560928345 0.26122456789016724
3.9162018299102783 1.7321518659591675 0.6071557402610779
5.43979024887085 -0.05316935479640961 0.8431364893913269
3.5349249839782715 -1.6251364946365356 0.5550999641418457
2.668213129043579 -3.0382323265075684 0.4171459376811981
1.6650259494781494 1.8799850940704346 0.2626194953918457
3.8964741230010986 1.7397135496139526 0.6057947874069214
5.420477867126465 -0.03311222791671753 0.8381812572479248
2.6832997798919678 -3.0318520069122314 0.4155391454696655
1.6619760990142822 1.889126181602478 0.26445701718330383
3.8808529376983643 1.7498266696929932 0.6058752536773682
5.405736446380615 -0.014152216725051403 0.8358890414237976
2.6911802291870117 -3.018392562866211 0.4136171340942383
1.6582201719284058 1.8988454341888428 0.26629966497421265
3.869716167449951 1.7619001865386963 0.6066550612449646
5.3858418464660645 0.00564004248008132 0.8337727785110474
2.706888437271118 -3.011584997177124 0.4098856449127197
1.6507947444915771 1.9050577878952026 0.26805955171585083
3.859161615371704 1.7725684642791748 0.6074312329292297
5.380851745605469 0.023478543385863304 0.8330078721046448
2.7169082164764404 -3.002645254135132 0.40917888283729553
1.640498161315918 1.9072551727294922 0.26840901374816895
3.8481483459472656 1.784618616104126 0.6067232489585876
5.356025218963623 0.043001849204301834 0.8291832804679871
2.724735736846924 -2.9892008304595947 0.40585264563560486
3.836810827255249 1.79647696018219 0.608233630657196
5.34596061706543 0.06158376857638359 0.8276533484458923
2.7391817569732666 -2.9830148220062256 0.40423133969306946
3.816777467727661 1.8041824102401733 0.6061019897460938
5.331165313720703 0.08095657825469971 0.823497474193573
2.7502875328063965 -2.9731616973876953 0.40140393376350403
3.819199323654175 1.821664571762085 0.6090002059936523
5.320808410644531 0.10030674934387207 0.8228998780250549
2.747692823410034 -2.9486024379730225 0.3980245590209961
3.812209129333496 1.8355119228363037 0.6112156510353088
5.300644397735596 0.11936283856630325 0.8198436498641968
2.75913667678833 -2.9381821155548096 0.3959141969680786
1.6149821281433105 1.9473291635513306 0.2770662009716034
3.8008129596710205 1.8472155332565308 0.611975908279419
5.2754974365234375 0.13722237944602966 0.8160232901573181
2.722198724746704 -2.877638101577759 0.38630589842796326
1.6231592893600464 1.972554326057434 0.28157132863998413
3.7982678413391113 1.863218903541565 0.6141693592071533
5.259999752044678 0.1561131477355957 0.8146495819091797
1.60636305809021 1.9667906761169434 0.28170081973075867
3.7824482917785645 1.872689127922058 0.6134693026542664
5.239638805389404 0.17473220825195312 0.8115898370742798
1.6028697490692139 1.9758514165878296 0.2835842967033386
3.7751753330230713 1.8863481283187866 0.616415798664093
5.2389631271362305 0.19393528997898102 0.8115898370742798
2.8163716793060303 -2.9123666286468506 0.3886779844760895
1.6048725843429565 1.9932078123092651 0.28658586740493774
3.7600624561309814 1.894404649734497 0.6149705052375793
5.218364715576172 0.21141570806503296 0.8094416260719299
2.8271684646606445 -2.9021694660186768 0.38655662536621094
1.591227650642395 1.991157054901123 0.28725242614746094
3.761291742324829 1.9131673574447632 0.6186253428459167
5.197810173034668 0.22966811060905457 0.8063784837722778
2.838937282562256 -2.890941619873047 0.38443517684936523
1.5683881044387817 1.9773950576782227 0.28577423095703125
3.7584633827209473 1.929100751876831 0.6208252906799316
5.192278861999512 0.2484947293996811 0.803798258304596
2.848696231842041 -2.8817014694213867 0.3816063702106476
3.751852512359619 1.9414538145065308 0.6222999691963196
5.1711745262146 0.2664848864078522 0.803453266620636
2.8598339557647705 -2.870836019515991 0.3801919221878052
3.726884365081787 1.945883870124817 0.6215866804122925
5.150478839874268 0.2834480106830597 0.8003866672515869
2.8740038871765137 -2.8639893531799316 0.37853461503982544
3.7284796237945557 1.9641412496566772 0.6230491995811462
5.134747505187988 0.30146297812461853 0.7971889972686768
2.881129503250122 -2.8501200675964355 0.3752409517765045
3.7121360301971436 1.9729468822479248 0.6245216727256775
5.118536949157715 0.31934046745300293 0.7966818809509277
2.895202159881592 -2.843121290206909 0.3742855489253998
3.7047836780548096 1.986487627029419 0.6252553462982178
5.1126790046691895 0.3377912640571594 0.7941257953643799
2.9128739833831787 -2.83957839012146 0.37307414412498474
3.7016355991363525 2.0023019313812256 0.6274600625038147
5.0866851806640625 0.35391145944595337 0.7911868691444397
2.916198968887329 -2.8220481872558594 0.3707443177700043
3.6894490718841553 2.013223886489868 0.6303907632827759
5.085078239440918 0.37253251671791077 0.7929666042327881
2.9302070140838623 -2.814880132675171 0.36978092789649963
3.6780667304992676 2.0237066745758057 0.6296491026878357
5.063837051391602 0.38964101672172546 0.7907795906066895
2.9334826469421387 -2.7974255084991455 0.3660447895526886
2.460055112838745 3.3185131549835205 0.49111855030059814
3.6616904735565186 2.032215118408203 0.6303587555885315
5.047672748565674 0.40612608194351196 0.7884718775749207
2.9510416984558105 -2.7935898303985596 0.3655257225036621
2.5036206245422363 3.4032843112945557 0.5045462846755981
3.654024839401245 2.0455145835876465 0.6318204402923584
5.0413641929626465 0.4242212474346161 0.786819577217102
2.965515613555908 -2.785778760910034 0.3638433516025543
2.48799467086792 3.408142566680908 0.5068994164466858
3.6591291427612305 2.0660223960876465 0.636258602142334
5.029794692993164 0.44181928038597107 0.7861641049385071
2.975890874862671 -2.7750632762908936 0.36100271344184875
2.467782497406006 3.404102087020874 0.5073118805885315
3.642747402191162 2.0744173526763916 0.6362248659133911
5.003542900085449 0.45799973607063293 0.7823179364204407
2.9861345291137695 -2.7642228603363037 0.3595823645591736
2.460878849029541 3.420894145965576 0.5114519000053406
3.62625789642334 2.082664966583252 0.6369140148162842
5.001504898071289 0.47542375326156616 0.7849486470222473
3.0000510215759277 -2.75675630569458 0.35788920521736145
2.4590487480163574 3.4461867809295654 0.5168172717094421
3.6234169006347656 2.097043037414551 0.6391282677650452
4.985151767730713 0.4905553460121155 0.7826330661773682
3.010272979736328 -2.745867967605591 0.35575583577156067
2.446244478225708 3.4549551010131836 0.5190339088439941
3.615978240966797 2.109622001647949 0.6398589611053467
4.958883762359619 0.5063284039497375 0.7779040932655334
3.0204544067382812 -2.734941005706787 0.3536223769187927
2.4333560466766357 3.4636003971099854 0.5219891667366028
3.6079330444335938 2.1226911544799805 0.6420508623123169
4.937025547027588 0.5241300463676453 0.7756866812705994
3.030550003051758 -2.7239346504211426 0.3522000312805176
2.4301650524139404 3.4835598468780518 0.5267903804779053
3.6041855812072754 2.138307809829712 0.6442716717720032
4.930174350738525 0.5390711426734924 0.7766461372375488
3.040604829788208 -2.712890386581421 0.35077762603759766
3.591794013977051 2.1487929821014404 0.6457036137580872
4.913111686706543 0.5571726560592651 0.7751885056495667
3.0548665523529053 -2.7046191692352295 0.34907016158103943
1.5980826616287231 2.3269643783569336 0.3541097640991211
3.5751419067382812 2.156663417816162 0.6463651657104492
4.896383762359619 0.5717276930809021 0.7737256288528442
3.064850330352783 -2.6934845447540283 0.34764590859413147
1.588996410369873 2.332878589630127 0.35608038306236267
3.575463056564331 2.1747703552246094 0.6493558883666992
4.889145374298096 0.5907858610153198 0.772950291633606
1.5858854055404663 2.3467516899108887 0.35881507396698
3.5587546825408936 2.1825168132781982 0.650008499622345
4.877116680145264 0.6066125631332397 0.7722576260566711
1.5771338939666748 2.3523402214050293 0.360792338848114
3.5424201488494873 2.189551830291748 0.6506505608558655
4.8600287437438965 0.6225841045379639 0.770784318447113
2.5770199298858643 -2.215022087097168 0.2841552793979645
1.5719325542449951 2.3614749908447266 0.363404780626297
3.542562961578369 2.2076258659362793 0.6536513566970825
4.833319187164307 0.635460376739502 0.7677502036094666
2.573824405670166 -2.1959242820739746 0.28172436356544495
1.5713951587677002 2.3795294761657715 0.3663061857223511
3.5090630054473877 2.204646587371826 0.6511799693107605
4.830843448638916 0.6540142893791199 0.7677502036094666
2.5895731449127197 -2.193011522293091 0.2807774543762207
1.5787917375564575 2.4098918437957764 0.37264278531074524
3.517359972000122 2.2278811931610107 0.656464695930481
4.8040547370910645 0.6666176915168762 0.7647073864936829
2.5900022983551025 -2.177124500274658 0.2793623208999634
1.5774881839752197 2.4281909465789795 0.37658849358558655
3.5048153400421143 2.2379767894744873 0.6571376323699951
4.796557426452637 0.6835053563117981 0.7647742629051208
2.6099350452423096 -2.1768321990966797 0.27881714701652527
1.5531971454620361 2.4082436561584473 0.37421998381614685
3.4929311275482178 2.2467288970947266 0.6585317850112915
4.783850193023682 0.6995937824249268 0.7657467126846313
2.7408082485198975 -2.2690060138702393 0.2906574606895447
1.568228006362915 2.4512269496917725 0.3825865089893341
3.4926693439483643 2.2647006511688232 0.6622774600982666
4.771617889404297 0.7156774401664734 0.7633402347564697
1.5591256618499756 2.4567887783050537 0.38411009311676025
3.483657121658325 2.277905225753784 0.6644569039344788
4.758942127227783 0.732471227645874 0.7626180052757263
2.718979597091675 -2.217545747756958 0.28291258215904236
1.5525716543197632 2.4663968086242676 0.3873078227043152
3.4627246856689453 2.282379150390625 0.6635400652885437
4.741327285766602 0.7475597858428955 0.761946976184845
2.688390016555786 -2.176238536834717 0.2782902717590332
1.5539134740829468 2.4887142181396484 0.39147892594337463
3.4622697830200195 2.3003265857696533 0.6672964692115784
4.733550071716309 0.7641244530677795 0.7619999647140503
1.538985013961792 2.486002206802368 0.3921976387500763
3.454332113265991 2.311600685119629 0.6694729328155518
4.72612190246582 0.7781676650047302 0.7620512247085571
2.5836544036865234 -2.0602903366088867 0.2629757523536682
1.5357773303985596 2.4993016719818115 0.3955751657485962
3.441452980041504 2.321289539337158 0.6708514094352722
4.708499908447266 0.7930023670196533 0.7605277895927429
2.5755913257598877 -2.0384624004364014 0.26081588864326477
1.5316195487976074 2.513139247894287 0.39896631240844727
3.4286463260650635 2.3309805393218994 0.6715009808540344
4.700564384460449 0.8093940615653992 0.76057368516922
2.5635533332824707 -2.013697624206543 0.2571302056312561
1.5376298427581787 2.543936252593994 0.40507158637046814
3.4195947647094727 2.3431992530822754 0.6751187443733215
4.687448024749756 0.8248366117477417 0.7614911794662476
2.563473701477051 -1.997766375541687 0.25520941615104675
1.5230560302734375 2.54081392288208 0.4057895541191101
3.4066319465637207 2.3527114391326904 0.6764828562736511
4.674691200256348 0.8394252061843872 0.7607402801513672
2.5708138942718506 -1.988384485244751 0.25464218854904175
3.405794620513916 2.3706166744232178 0.6802682876586914
4.666596412658691 0.855638861656189 0.7607775330543518
2.582144021987915 -1.9820648431777954 0.2533283829689026
3.393167018890381 2.379453182220459 0.681629478931427
4.653332710266113 0.8708474636077881 0.7616732120513916
2.5815303325653076 -1.9665991067886353 0.25141966342926025
3.392286539077759 2.3974311351776123 0.684702455997467
4.640435218811035 0.885210394859314 0.7609091997146606
2.5967440605163574 -1.963189721107483 0.2510557770729065
3.3711295127868652 2.4010541439056396 0.6844300031661987
4.632184028625488 0.9012443423271179 0.7609376907348633
2.6159555912017822 -1.9626874923706055 0.2510676085948944
3.357813835144043 2.4101691246032715 0.6872215270996094
4.61393404006958 0.9152573347091675 0.7610129117965698
2.631164073944092 -1.9590671062469482 0.25126054883003235
3.3526611328125 2.4251387119293213 0.6902081966400146
4.591066837310791 0.9282233715057373 0.7586362361907959
2.646416664123535 -1.9553877115249634 0.25087568163871765
3.339277505874634 2.434150457382202 0.6929919719696045
4.58257532119751 0.9431684017181396 0.7602866291999817
2.661642074584961 -1.951596736907959 0.251059889793396
3.3389415740966797 2.4509027004241943 0.6960917115211487
4.574127197265625 0.9589181542396545 0.7603002786636353
2.6567883491516113 -1.9331051111221313 0.24820181727409363
3.3217151165008545 2.457042694091797 0.6965978145599365
4.555714130401611 0.9725030064582825 0.7603309750556946
2.671975612640381 -1.9292172193527222 0.2483798861503601
3.3040976524353027 2.462798595428467 0.6999704837799072
4.5470805168151855 0.9872679710388184 0.7619619965553284
2.6871345043182373 -1.9252184629440308 0.24913141131401062
3.2946574687957764 2.474597930908203 0.7028473019599915
4.542911052703857 1.0038121938705444 0.7652102112770081
2.7104275226593018 -1.926912546157837 0.25063449144363403
3.2979090213775635 2.4770400524139404 0.7087276577949524
4.541994571685791 1.0036096572875977 0.7708936929702759
2.706148624420166 -1.92387056350708 0.25373587012290955
3.3070645332336426 2.465009927749634 0.7080077528953552
4.5452470779418945 0.9868699312210083 0.7733291983604431
2.685732364654541 -1.9263428449630737 0.25547730922698975
3.3081531524658203 2.4470109939575195 0.7063159346580505
4.558349132537842 0.9722336530685425 0.7757828235626221
2.67042875289917 -1.930228352546692 0.25700700283050537
3.328690767288208 2.444272041320801 0.7081329226493835
4.571403980255127 0.9575142860412598 0.7782398462295532
2.6712486743927 -1.9457663297653198 0.2600919008255005
3.3458926677703857 2.4380784034729004 0.7076553702354431
4.598738193511963 0.9464949369430542 0.7831683158874512
2.6556124687194824 -1.9500278234481812 0.26103243231773376
3.354905843734741 2.425870895385742 0.706932783126831
4.6119794845581055 0.9316136240959167 0.7839924693107605
2.624297857284546 -1.941878080368042 0.2603724002838135
3.356065511703491 2.408026933670044 0.7030869722366333
4.625173091888428 0.9166477918624878 0.7848131060600281
2.6130943298339844 -1.9484500885009766 0.26111268997192383
3.372999906539917 2.401499032974243 0.7040422558784485
4.628209590911865 0.9004711508750916 0.7856360077857971
2.6017677783966064 -1.9548829793930054 0.2635535001754761
3.3804268836975098 2.3908190727233887 0.7047649621963501
4.645878314971924 0.8862486481666565 0.7889269590377808
2.59810471534729 -1.9677839279174805 0.26566362380981445
3.3894686698913574 2.37862491607666 0.7025969624519348
4.654078006744385 0.8701463341712952 0.7889231443405151
2.582878351211548 -1.9711904525756836 0.2659853994846344
3.398465394973755 2.366395950317383 0.7004287242889404
4.666802883148193 0.854834794998169 0.7913949489593506
2.5794756412506104 -1.9835963249206543 0.2680971622467041
1.5320173501968384 2.5567753314971924 0.41943123936653137
3.4080379009246826 2.352804183959961 0.6997058987617493
4.679330348968506 0.8402583003044128 0.7938699722290039
2.5759782791137695 -1.995974063873291 0.27078282833099365
1.5303640365600586 2.534912586212158 0.4150940179824829
3.424257278442383 2.3472721576690674 0.699198305606842
4.701944828033447 0.8265414834022522 0.7963308095932007
2.5731990337371826 -2.007511854171753 0.27233612537384033
1.545387864112854 2.5377237796783447 0.41440802812576294
3.4284539222717285 2.3325998783111572 0.6976441144943237
4.705079555511475 0.8093259334564209 0.7954975366592407
2.588503122329712 -2.036219835281372 0.27655526995658875
1.5522006750106812 2.5280067920684814 0.41216418147087097
3.4372825622558594 2.3202226161956787 0.6954728364944458
4.717879295349121 0.7937352061271667 0.7963061928749084
2.5883216857910156 -2.0522141456604004 0.2796981632709503
1.558962345123291 2.518272638320923 0.4099253714084625
3.4499616622924805 2.310420036315918 0.6955751180648804
4.7253499031066895 0.7780405282974243 0.7979629635810852
2.5845603942871094 -2.0647048950195312 0.281852126121521
1.5394840240478516 2.466562271118164 0.40035516023635864
3.458709239959717 2.2979609966278076 0.6934009790420532
4.738046169281006 0.7623051404953003 0.7987689971923828
2.662238121032715 -2.1427903175354004 0.29298001527786255
1.5433491468429565 2.45269513130188 0.3974738121032715
3.467310667037964 2.2854020595550537 0.6919513940811157
4.755564212799072 0.7472527027130127 0.800391674041748
2.646588087081909 -2.146225690841675 0.29272058606147766
1.5515483617782593 2.447680711746216 0.39646223187446594
3.484020233154297 2.2781426906585693 0.6928684711456299
4.763007640838623 0.7305442094802856 0.8020527362823486
2.6227011680603027 -2.1436002254486084 0.29396483302116394
1.5686609745025635 2.4547340869903564 0.39646172523498535
3.488117218017578 2.263479232788086 0.6898704171180725
4.775423049926758 0.715395987033844 0.8028518557548523
2.5840251445770264 -2.1278345584869385 0.29109063744544983
1.5540682077407837 2.4114415645599365 0.3883907198905945
3.5091371536254883 2.258884906768799 0.690140426158905
4.792654037475586 0.7000269889831543 0.8053120374679565
2.6067590713500977 -2.1626362800598145 0.296329528093338
1.5657058954238892 2.4100546836853027 0.3875567317008972
3.509178638458252 2.240762948989868 0.6877821683883667
4.814859390258789 0.6852560043334961 0.8077435493469238
2.591052532196045 -2.1656877994537354 0.2972261607646942
1.5664950609207153 2.3920326232910156 0.38405507802963257
3.5133018493652344 2.225310802459717 0.6862414479255676
4.831855773925781 0.6696159243583679 0.8110525608062744
2.5982167720794678 -2.187901496887207 0.3007582724094391
1.5636506080627441 2.370500087738037 0.3794102072715759
3.5258142948150635 2.2151708602905273 0.685602068901062
4.8391923904418945 0.6534243822097778 0.8110204339027405
2.574868679046631 -2.184420108795166 0.3007623255252838
1.5642054080963135 2.35253643989563 0.375944584608078
3.546187400817871 2.2107436656951904 0.687309741973877
4.856085300445557 0.6375913619995117 0.8143328428268433
2.5705108642578125 -2.1969759464263916 0.30297648906707764
1.5812418460845947 2.3593575954437256 0.3759404718875885
3.5545718669891357 2.197920083999634 0.6851215958595276
4.873067378997803 0.6216611266136169 0.8167931437492371
2.5694820880889893 -2.213226079940796 0.30564460158348083
1.5844024419784546 2.3454394340515137 0.3736403286457062
3.5578391551971436 2.183664560317993 0.6828556060791016
4.885138988494873 0.6058788299560547 0.8175740838050842
1.5875545740127563 2.3316361904144287 0.37036240100860596
3.566880941390991 2.1695501804351807 0.6806697249412537
4.897263050079346 0.5891652703285217 0.8183516263961792
1.5789657831192017 2.3017098903656006 0.364995539188385
3.574157476425171 2.157771348953247 0.6799410581588745
4.914229869842529 0.5729421377182007 0.8199431896209717
3.068695545196533 -2.7006633281707764 0.3749006986618042
3.5822455883026123 2.1447792053222656 0.6784837245941162
4.92609977722168 0.5560332536697388 0.8215782046318054
3.046558141708374 -2.7029595375061035 0.37495240569114685
2.4324004650115967 3.4906578063964844 0.5503055453300476
3.5818991661071777 2.1267762184143066 0.6746985912322998
4.942863941192627 0.540458619594574 0.823162853717804
3.0364842414855957 -2.7139768600463867 0.377084881067276
2.4225428104400635 3.449488639831543 0.5429674983024597
3.598010301589966 2.1193900108337402 0.6748397946357727
4.959385395050049 0.5238779187202454 0.8264831304550171
3.0258936882019043 -2.7254834175109863 0.3792172074317932
2.443983316421509 3.4530391693115234 0.5419305562973022
3.610321044921875 2.108856201171875 0.6734484434127808
4.98090124130249 0.5076981782913208 0.8297531008720398
3.0157856941223145 -2.736466407775879 0.3806387186050415
2.450972557067871 3.4361367225646973 0.5391865968704224
3.614586591720581 2.091932535171509 0.6719244122505188
4.997514247894287 0.4917718470096588 0.8313291072845459
3.0055885314941406 -2.747366428375244 0.3827708959579468
2.4625182151794434 3.4282190799713135 0.5369765758514404
3.6302685737609863 2.0849685668945312 0.6720515489578247
5.009105205535889 0.4743819236755371 0.8329623937606812
2.9926505088806152 -2.753812074661255 0.38443246483802795
2.472973108291626 3.4150233268737793 0.533402144908905
3.642481803894043 2.074265956878662 0.6706494092941284
5.020780086517334 0.45692676305770874 0.8337156772613525
2.9777748584747314 -2.7622804641723633 0.38608866930007935
2.4855830669403076 3.4060866832733154 0.5319302678108215
3.6457605361938477 2.05847430229187 0.6698594689369202
5.0370192527771 0.43979620933532715 0.8370455503463745
2.967482328414917 -2.7730376720428467 0.3882153034210205
2.4953300952911377 3.3932552337646484 0.5283641219139099
3.6618454456329346 2.050731897354126 0.6692419052124023
5.063101768493652 0.4242706596851349 0.8411287665367126
2.9540114402770996 -2.7798285484313965 0.3898634612560272
2.502007007598877 3.3763363361358643 0.5249192118644714
3.6520700454711914 2.027709722518921 0.6660925149917603
5.064768314361572 0.4057222902774811 0.8402419090270996
2.9426305294036865 -2.791476011276245 0.39269521832466125
2.5591158866882324 3.4270718097686768 0.5312293767929077
3.677086114883423 2.024003267288208 0.6670442819595337
5.080977916717529 0.3882838785648346 0.8426892161369324
2.9430737495422363 -2.812462329864502 0.39556172490119934
3.689018964767456 2.0129892826080322 0.6663621664047241
5.092353343963623 0.37038493156433105 0.8434295654296875
2.9182558059692383 -2.809281587600708 0.39574843645095825
3.6923346519470215 1.9972708225250244 0.6633812189102173
5.108380317687988 0.35362914204597473 0.8458743691444397
2.914935350418091 -2.82674241065979 0.39884692430496216
3.699834108352661 1.98383367061615 0.6619157791137695
5.11963415145874 0.33555853366851807 0.8466086983680725
2.897336721420288 -2.830355644226074 0.39928320050239563
3.720470666885376 1.9773764610290527 0.662045955657959
5.1405253410339355 0.3180103302001953 0.8498649001121521
2.8903403282165527 -2.8442986011505127 0.40189704298973083
3.7222952842712402 1.9633740186691284 0.6612697839736938
5.161154270172119 0.3012056052684784 0.8540233969688416
2.88427734375 -2.8572208881378174 0.40451598167419434
3.730351209640503 1.948522925376892 0.6598007678985596
5.1720757484436035 0.2828257381916046 0.8556532263755798
2.869063377380371 -2.865060329437256 0.40685102343559265
3.7509355545043945 1.9418092966079712 0.6599125862121582
5.1930832862854 0.2648876905441284 0.8570978045463562
2.854985475540161 -2.8719778060913086 0.40705859661102295
3.7448410987854004 1.92128324508667 0.657597005367279
5.208653450012207 0.2465449720621109 0.8604475259780884
2.840193271636963 -2.879124164581299 0.4100880026817322
3.769008159637451 1.9179203510284424 0.6592082381248474
5.219339847564697 0.22879397869110107 0.8620756268501282
2.8330013751983643 -2.892965793609619 0.41200581192970276
3.771908760070801 1.9020241498947144 0.656226396560669
5.230152130126953 0.2100646048784256 0.8627901077270508
2.823241949081421 -2.9021897315979004 0.41412582993507385
1.6194396018981934 1.9984145164489746 0.30307507514953613
3.7787299156188965 1.8889484405517578 0.6547517776489258
5.2357497215271 0.19290128350257874 0.8636032938957214
2.809030294418335 -2.9088358879089355 0.4150286912918091
1.618122935295105 1.9804836511611938 0.2999807894229889
3.790260076522827 1.8773804903030396 0.6540411114692688
5.260833263397217 0.17268145084381104 0.8695066571235657
2.7971296310424805 -2.9198787212371826 0.41785168647766113
3.784113883972168 1.8570952415466309 0.6495419144630432
5.271666526794434 0.15645940601825714 0.8683751225471497
2.787381172180176 -2.9290854930877686 0.41855737566947937
3.8133208751678467 1.8541171550750732 0.6518692970275879
5.301844120025635 0.13605576753616333 0.8732491135597229
2.7753994464874268 -2.940037727355957 0.42138010263442993
3.811185836791992 1.8358386754989624 0.6503497362136841
5.311866283416748 0.11683286726474762 0.8767284154891968
2.7638378143310547 -2.9504034519195557 0.42490822076797485
1.617956280708313 1.9234280586242676 0.289036363363266
3.818093776702881 1.8219554424285889 0.6488730311393738
5.3270392417907715 0.09856407344341278 0.8791705965995789
2.7562899589538574 -2.964045763015747 0.42684370279312134
1.6350969076156616 1.9287225008010864 0.2889848053455353
3.8295211791992188 1.810206413269043 0.6474133133888245
5.347249507904053 0.07933386415243149 0.8814933896064758
2.7418835163116455 -2.9703104496002197 0.4284360110759735
1.6318740844726562 1.9120302200317383 0.2864041328430176
3.8404970169067383 1.7990204095840454 0.6466884613037109
5.3622822761535645 0.06177178770303726 0.8839329481124878
2.7352774143218994 -2.982940435409546 0.43037569522857666
1.6454468965530396 1.9136840105056763 0.2862147390842438
3.856032609939575 1.789092779159546 0.6481958627700806
5.377272129058838 0.04223386570811272 0.8863725066184998
2.7241737842559814 -2.9927785396575928 0.43249472975730896
1.6525474786758423 1.9077529907226562 0.2848932147026062
3.8537862300872803 1.770914077758789 0.6452080011367798
5.392194747924805 0.021645773202180862 0.8888120055198669
2.7052719593048096 -2.9960856437683105 0.4342503845691681
1.6498578786849976 1.890601396560669 0.2814590334892273
3.8739540576934814 1.763013482093811 0.6459783315658569
5.411971569061279 0.0018891345243901014 0.8920647501945496
2.700756311416626 -3.013214349746704 0.4374386966228485
1.6562154293060303 1.8852304220199585 0.28014516830444336
3.8838789463043213 1.7536386251449585 0.6452410817146301
5.421976566314697 -0.014194733463227749 0.8927448391914368
2.6906473636627197 -3.0220396518707275 0.43885114789009094
1.662522554397583 1.8798010349273682 0.27926918864250183
3.9092516899108887 1.7462369203567505 0.6459934711456299
5.426809310913086 -0.03599248826503754 0.8935571908950806
2.6750009059906006 -3.028860330581665 0.4411332905292511
1.6731642484664917 1.8772586584091187 0.2780666947364807
3.9241654872894287 1.7373123168945312 0.6467363834381104
5.461202621459961 -0.0533786416053772 0.8992434740066528
3.578552007675171 -1.6482207775115967 0.5979613661766052
2.6675870418548584 -3.041800022125244 0.443088173866272
1.6734895706176758 1.8638254404067993 0.2756561040878296
3.930713415145874 1.723008394241333 0.6452382802963257
5.475769519805908 -0.07359348982572556 0.9016804099082947
3.5904171466827393 -1.6696637868881226 0.6009624600410461
2.6540684700012207 -3.0467066764831543 0.444659560918808
1.6804064512252808 1.8577862977981567 0.2743445336818695
3.941342353820801 1.7112911939620972 0.6452317237854004
5.485296249389648 -0.09574619680643082 0.9033051133155823
3.6101460456848145 -1.6964974403381348 0.6082488894462585
2.641613483428955 -3.057101011276245 0.44748035073280334
1.6866862773895264 1.8523445129394531 0.27259561419487
3.9525444507598877 1.6989643573760986 0.6429709196090698
5.514543533325195 -0.11455032974481583 0.908178985118866
3.6360669136047363 -1.722644567489624 0.6135249137878418
2.631359100341797 -3.065725088119507 0.4488906264305115
1.6901681423187256 1.8425570726394653 0.27118200063705444
3.972395896911621 1.690274715423584 0.6451880931854248
5.5239739418029785 -0.13403832912445068 0.9098036885261536
3.6608450412750244 -1.750841736793518 0.6195091605186462
2.616729736328125 -3.0713870525360107 0.4504512548446655
1.6939842700958252 1.8325417041778564 0.26890072226524353
3.9653048515319824 1.670119047164917 0.6399672627449036
5.533308506011963 -0.15455929934978485 0.9114282727241516
3.6899142265319824 -1.7813912630081177 0.6262609958648682
2.6085617542266846 -3.0846314430236816 0.45241615176200867
1.70414137840271 1.8300275802612305 0.26856347918510437
3.989658832550049 1.6631861925125122 0.6429096460342407
5.54749870300293 -0.17530636489391327 0.913865327835083
3.709721326828003 -1.8077493906021118 0.6329544186592102
2.5970351696014404 -3.0939290523529053 0.4552363157272339
1.7075634002685547 1.8202794790267944 0.2662872076034546
3.9959352016448975 1.6486376523971558 0.6414007544517517
5.586228370666504 -0.19800396263599396 0.9203639030456543
3.7379074096679688 -1.840088963508606 0.6390186548233032
2.5971057415008545 -3.119356393814087 0.4603099226951599
1.7109360694885254 1.8105295896530151 0.2640177309513092
4.006737232208252 1.6359349489212036 0.6406240463256836
5.595324516296387 -0.21886283159255981 0.9219885468482971
3.7666709423065186 -1.8706111907958984 0.6465510129928589
2.582387685775757 -3.1249003410339355 0.4611615836620331
1.7204526662826538 1.8085485696792603 0.26323777437210083
4.012630462646484 1.6220225095748901 0.6391132473945618
5.609355926513672 -0.23804394900798798 0.9244255423545837
3.7867565155029297 -1.8962664604187012 0.6525878310203552
2.568159341812134 -3.129868268966675 0.46271634101867676
1.7271332740783691 1.8022968769073486 0.2623664438724518
4.023348331451416 1.609224557876587 0.6383311152458191
5.628159046173096 -0.2595106363296509 0.9276748299598694
3.83182430267334 -1.938112735748291 0.6632245182991028
2.5585057735443115 -3.14375376701355 0.46611395478248596
1.7338542938232422 1.7960859537124634 0.26062366366386414
4.024826526641846 1.5927289724349976 0.6360915303230286
5.646928787231445 -0.2801327705383301 0.930924117565155
3.86478590965271 -1.9709064960479736 0.6716077923774719
2.547964096069336 -3.1520938873291016 0.4675287902355194
1.7408329248428345 1.7895128726959229 0.25931650400161743
4.044662952423096 1.5834577083587646 0.6367562413215637
5.670822620391846 -0.30215775966644287 0.9330035448074341
3.8875925540924072 -2.002241611480713 0.6769623160362244
2.5382437705993652 -3.165980577468872 0.4702264964580536
4.0546088218688965 1.5718650817871094 0.6367225050926208
5.684128284454346 -0.32376348972320557 0.9374227523803711
3.876126527786255 -2.012627363204956 0.6792466044425964
2.5275771617889404 -3.174187183380127 0.4723511040210724
1.7813849449157715 1.8058027029037476 0.2612355351448059
4.069788455963135 1.5606157779693604 0.6366497874259949
5.702601432800293 -0.3457891047000885 0.9406720399856567
3.8647003173828125 -2.023853302001953 0.6784782409667969
2.506483316421509 -3.1714816093444824 0.4734388291835785
1.8266870975494385 1.8382006883621216 0.2650609016418457
4.084941387176514 1.54927659034729 0.6365700960159302
5.711206436157227 -0.36632439494132996 0.9422966241836548
3.843942642211914 -2.0309700965881348 0.6776907444000244
2.5069994926452637 -3.196146011352539 0.4771832823753357
4.094956398010254 1.5367463827133179 0.6372910141944885
5.724592685699463 -0.3882560729980469 0.9447336792945862
3.836264133453369 -2.044933795928955 0.6792082786560059
2.4889109134674072 -3.1971471309661865 0.47955256700515747
2.038503885269165 2.020792007446289 0.29004451632499695
4.101508617401123 1.5204501152038574 0.6342374086380005
5.718538761138916 -0.4089067578315735 0.9419202208518982
3.8277108669281006 -2.060148239135742 0.6814844012260437
2.4789373874664307 -3.210843324661255 0.48226428031921387
4.106735706329346 1.5069169998168945 0.6327104568481445
5.697396278381348 -0.4273894131183624 0.9386777877807617
3.8161544799804688 -2.0711405277252197 0.680709958076477
2.467050075531006 -3.219774007797241 0.48368021845817566
1.8755015134811401 1.8321434259414673 0.26262277364730835
4.121534824371338 1.495229959487915 0.6341418623924255
5.665790557861328 -0.4459074139595032 0.9367899894714355
3.8084843158721924 -2.0842204093933105 0.6837410926818848
2.4531478881835938 -3.223716974258423 0.485916405916214
4.1319580078125 1.4818964004516602 0.6325593590736389
5.644776344299316 -0.4650769531726837 0.9315602779388428
3.783158540725708 -2.0892772674560547 0.6806296110153198
2.44008469581604 -3.2334024906158447 0.48733043670654297
2.964506149291992 2.853804588317871 0.40709635615348816
4.15156364440918 1.4717768430709839 0.633161187171936
5.643033504486084 -0.48576295375823975 0.9315602779388428
3.7838966846466064 -2.1078202724456787 0.6836972832679749
2.430421829223633 -3.2464487552642822 0.490759015083313
2.970510721206665 2.8406662940979004 0.4044521450996399
4.156929969787598 1.4565507173538208 0.633161187171936
5.611819744110107 -0.5028161406517029 0.9266915321350098
3.7639665603637695 -2.1131033897399902 0.6813585162162781
2.4195406436920166 -3.2543528079986572 0.49217456579208374
2.985158920288086 2.8328099250793457 0.4027869999408722
4.162448883056641 1.4413771629333496 0.6316236853599548
5.59520149230957 -0.5220061540603638 0.9242570400238037
3.7559890747070312 -2.12676739692688 0.6828653216362
2.4103386402130127 -3.2669155597686768 0.49561136960983276
2.9956746101379395 2.821993827819824 0.4006321430206299
4.1723456382751465 1.4285132884979248 0.6307939887046814
5.5734477043151855 -0.5405892729759216 0.9219885468482971
3.7439427375793457 -2.137239694595337 0.684341311454773
2.4011778831481934 -3.279592275619507 0.4976361393928528
3.0097856521606445 2.814537525177002 0.39895907044410706
4.18703556060791 1.4164187908172607 0.6314384341239929
5.551891803741455 -0.5580673217773438 0.9187391996383667
3.7102010250091553 -2.1360459327697754 0.681132435798645
2.380185842514038 -3.2760448455810547 0.4986404478549957
3.0129892826080322 2.7969038486480713 0.39512544870376587
4.183018207550049 1.397994875907898 0.6284847259521484
5.510552883148193 -0.574320912361145 0.9122406244277954
3.7485599517822266 -2.1782119274139404 0.689774215221405
2.372663974761963 -3.2934131622314453 0.5019879937171936
3.01874041557312 2.783663034439087 0.39249709248542786
4.197723388671875 1.3858264684677124 0.6283524632453918
5.503347396850586 -0.5939677953720093 0.9123944044113159
2.357487440109253 -3.297765016555786 0.504204511642456
3.040574073791504 2.7822701930999756 0.39176642894744873
4.221913814544678 1.3766725063323975 0.6288419961929321
5.4867401123046875 -0.6125277280807495 0.9080278277397156
4.153436183929443 -2.4534006118774414 0.7700764536857605
2.345282793045044 -3.3062400817871094 0.5056195259094238
3.0397982597351074 2.7611584663391113 0.3889135420322418
4.236355781555176 1.3642240762710571 0.6302440762519836
5.464963436126709 -0.6294182538986206 0.9047819375991821
4.152867794036865 -2.4726598262786865 0.7750272750854492
2.342672824859619 -3.3258774280548096 0.5103163123130798
3.0538463592529297 2.753558397293091 0.38579675555229187
4.232308864593506 1.3458201885223389 0.625741720199585
5.437967300415039 -0.6465132236480713 0.9016804099082947
4.123045444488525 -2.474438428878784 0.7710689902305603
2.330364942550659 -3.3342952728271484 0.5117363333702087
3.05930233001709 2.7401397228240967 0.38461288809776306
4.255746841430664 1.3377498388290405 0.6277534365653992
5.430665016174316 -0.665839672088623 0.9008681178092957
4.147389888763428 -2.509770154953003 0.7799406051635742
2.3150975704193115 -3.3384430408477783 0.5139486193656921
3.0732457637786865 2.7323944568634033 0.3822082579135895
4.260621070861816 1.3221427202224731 0.6277534365653992
5.394043445587158 -0.6804697513580322 0.8951818346977234
4.066296100616455 -2.4811041355133057 0.7681013345718384
2.3133010864257812 -3.3633580207824707 0.5193086862564087
3.075873851776123 2.714611291885376 0.3798508048057556
4.274782657623291 1.3101961612701416 0.6283665299415588
5.386466026306152 -0.6995797753334045 0.895317554473877
4.111599922180176 -2.529473304748535 0.7801339626312256
2.295213460922241 -3.363396167755127 0.5201788544654846
4.294193744659424 1.2989473342895508 0.627322256565094
5.364614486694336 -0.7167453765869141 0.8901755809783936
4.090044975280762 -2.535935163497925 0.778580904006958
2.282768964767456 -3.3716354370117188 0.5216002464294434
2.6794238090515137 2.3291876316070557 0.32372477650642395
4.294286251068115 1.281814694404602 0.6258476972579956
5.342246055603027 -0.7336965799331665 0.8878709077835083
4.130713939666748 -2.5821590423583984 0.7898638844490051
2.2701921463012695 -3.379676342010498 0.524442732334137
4.313416004180908 1.2703254222869873 0.6263527274131775
5.3152265548706055 -0.7488985061645508 0.8838093280792236
4.086570739746094 -2.577436923980713 0.7859916090965271
2.264699697494507 -3.4009149074554443 0.5284985303878784
2.4122977256774902 2.067589282989502 0.2863454520702362
4.3182525634765625 1.2545682191848755 0.6247830986976624
4.061339378356934 -2.5803885459899902 0.7827801704406738
2.256042242050171 -3.412388801574707 0.5305678844451904
2.4730377197265625 2.103976011276245 0.29149553179740906
4.3276872634887695 1.2401269674301147 0.6246854662895203
4.035001754760742 -2.5844621658325195 0.7812414765357971
2.243316411972046 -3.4203240871429443 0.5334236025810242
4.35147762298584 1.229703664779663 0.6258559823036194
