# .PCD v0.7 - Point Cloud Data file format
VERSION 0.7
FIELDS x y z
SIZE 4 4 4
TYPE F F F
COUNT 1 1 1
WIDTH 817
HEIGHT 1
VIEWPOINT 0 0 0 1 0 0 0
POINTS 817
DATA ascii
3.997249126434326 1.0322704315185547 -0.4229865074157715
2.149634599685669 -0.3747846782207489 -0.18630139529705048
2.261532783508301 -1.5139641761779785 -0.13786575198173523
2.248439311981201 -3.564939498901367 -0.04413856938481331
0.8119975328445435 0.657073438167572 -0.10683836787939072
4.000718593597412 1.0175398588180542 -0.42586854100227356
2.158087968826294 -0.38441401720046997 -0.186769500374794
2.251868963241577 -1.5194767713546753 -0.13666453957557678
2.2307004928588867 -3.5643272399902344 -0.03963060304522514
0.8142979741096497 0.6540107131004333 -0.10811444371938705
4.004306793212891 1.0020982027053833 -0.4287503957748413
2.1663663387298584 -0.3944767415523529 -0.1880027800798416
2.2422335147857666 -1.5249648094177246 -0.1345202624797821
2.212364912033081 -3.5640110969543457 -0.035875674337148666
0.8167290687561035 0.6508201360702515 -0.10902582854032516
4.002634048461914 0.9875867366790771 -0.4296729266643524
2.1698360443115234 -0.40333059430122375 -0.18804290890693665
2.2325870990753174 -1.5304018259048462 -0.13238286972045898
2.194066047668457 -3.563615560531616 -0.030677376314997673
0.8148938417434692 0.6449511051177979 -0.10959500819444656
4.01101016998291 0.973330020904541 -0.4323524236679077
2.173166275024414 -0.4125884771347046 -0.18846739828586578
2.231109380722046 -1.5414392948150635 -0.13168053328990936
2.1966373920440674 -3.5972580909729004 -0.02721909061074257
0.8171918392181396 0.6419126391410828 -0.11032050848007202
2.142324686050415 -0.41487380862236023 -0.18553969264030457
2.229618549346924 -1.552512526512146 -0.13002632558345795
2.1782736778259277 -3.596757411956787 -0.022017227485775948
0.8313074707984924 0.6478545665740967 -0.11319176852703094
3.3739490509033203 0.7919738292694092 -0.36670127511024475
2.1800732612609863 -0.4296894371509552 -0.1885407418012619
2.2318716049194336 -1.566840410232544 -0.12907655537128448
2.159938097000122 -3.5961620807647705 -0.01757192239165306
0.8375141620635986 0.6477715969085693 -0.11483451724052429
3.3670148849487305 0.7773366570472717 -0.36685529351234436
2.1832592487335205 -0.43903279304504395 -0.1893521398305893
2.2343413829803467 -1.5808311700820923 -0.127638578414917
2.134582996368408 -3.5822179317474365 -0.013100420124828815
0.8437455892562866 0.6476627588272095 -0.11630190163850784
3.350330114364624 0.7599465847015381 -0.36714234948158264
2.215832471847534 -0.4540390968322754 -0.1919226348400116
2.2448713779449463 -1.6006600856781006 -0.12664547562599182
2.11635684967041 -3.581416606903076 -0.009438731707632542
0.8457913994789124 0.644787073135376 -0.11741570383310318
3.3335583209991455 0.7433061003684998 -0.3662092983722687
2.2433338165283203 -0.46865683794021606 -0.19445905089378357
2.247138023376465 -1.6147323846817017 -0.12613843381404877
2.0931081771850586 -3.571899890899658 -0.005057962611317635
0.856089174747467 0.6474551558494568 -0.11963712424039841
3.3409931659698486 0.7315090894699097 -0.36913013458251953
2.2534120082855225 -1.6317976713180542 -0.12487917393445969
2.112661123275757 -3.635751247406006 -0.0007339109433814883
0.8623464703559875 0.647232711315155 -0.12113197147846222
3.3435888290405273 0.7192452549934387 -0.36972707509994507
4.60627555847168 -0.9975951910018921 -0.39990928769111633
2.2595908641815186 -1.6489304304122925 -0.12359894812107086
2.106808662414551 -3.6564648151397705 0.004419172648340464
0.8646107912063599 0.6439917087554932 -0.12226101011037827
3.336345672607422 0.704294741153717 -0.3710328936576843
4.617143154144287 -1.018524408340454 -0.39952704310417175
2.257607936859131 -1.6601985692977905 -0.12235236912965775
2.1057918071746826 -3.6858649253845215 0.008149809204041958
0.8708568215370178 0.6436947584152222 -0.12395855039358139
3.3386502265930176 0.692008912563324 -0.3734133839607239
4.647339344024658 -1.043062448501587 -0.403305321931839
2.271609306335449 -1.6833579540252686 -0.12245593965053558
2.1200239658355713 -3.7410333156585693 0.012758337892591953
0.8689886331558228 0.637635350227356 -0.12451868504285812
3.331413745880127 0.6771783232688904 -0.3735113739967346
4.6433000564575195 -1.0608991384506226 -0.403305321931839
2.277517080307007 -1.7007026672363281 -0.12062454968690872
2.1038427352905273 -3.7444088459014893 0.01649157516658306
0.8832584023475647 0.6431390047073364 -0.12738439440727234
3.328447103500366 0.6650893092155457 -0.37592750787734985
4.653870582580566 -1.0812772512435913 -0.40540486574172974
2.2832772731781006 -1.718074917793274 -0.12026309221982956
2.063328504562378 -3.704026460647583 0.021460475400090218
0.8895077705383301 0.6427140235900879 -0.12930424511432648
3.330782651901245 0.652266263961792 -0.3777046799659729
4.659380912780762 -1.1014310121536255 -0.40625032782554626
2.2846736907958984 -1.7329052686691284 -0.11918217688798904
0.9958599805831909 -1.803253173828125 0.011864682659506798
3.327880620956421 0.6390419006347656 -0.3807004690170288
4.6551055908203125 -1.1184512376785278 -0.40875715017318726
1.0948855876922607 -1.9998493194580078 0.015121420845389366
0.8835107684135437 0.6334649920463562 -0.13098064064979553
3.3126535415649414 0.6361178755760193 -0.38432490825653076
4.668934345245361 -1.1217739582061768 -0.41841456294059753
2.2900795936584473 -1.7502647638320923 -0.12382970750331879
0.8851135969161987 0.6397742033004761 -0.1313881129026413
3.3100547790527344 0.6488069891929626 -0.38550233840942383
4.658116340637207 -1.1011321544647217 -0.4212895929813385
2.2843997478485107 -1.7326973676681519 -0.12718933820724487
1.010051965713501 -1.8297059535980225 0.008389774709939957
0.8706873059272766 0.6344506740570068 -0.12884436547756195
3.317330837249756 0.6628681421279907 -0.3872282803058624
4.642428874969482 -1.0794730186462402 -0.422863632440567
2.2743659019470215 -1.7126132249832153 -0.12928450107574463
2.0627005100250244 -3.7044198513031006 0.01184029784053564
0.8804160356521606 0.6464933753013611 -0.13005372881889343
3.324496269226074 0.6775850057601929 -0.3883655369281769
4.64128303527832 -1.0612907409667969 -0.42491471767425537
2.2725160121917725 -1.6982042789459229 -0.1318017840385437
2.059131145477295 -3.6663293838500977 0.00587128521874547
0.8700001835823059 0.6440012454986572 -0.12830469012260437
3.312262773513794 0.6877455115318298 -0.3872282803058624
4.640174865722656 -1.0423051118850708 -0.4277905523777008
2.266578197479248 -1.680855631828308 -0.13406072556972504
2.039891004562378 -3.6025607585906982 0.0
0.8599863648414612 0.6410140991210938 -0.12619158625602722
3.31931734085083 0.702515721321106 -0.3883655369281769
4.619431495666504 -1.0198748111724854 -0.42802783846855164
2.252497673034668 -1.6576523780822754 -0.13580313324928284
0.865511953830719 0.6503173112869263 -0.12679320573806763
3.3217010498046875 0.7151435613632202 -0.3889341354370117
4.6083197593688965 -0.9997221231460571 -0.4291452467441559
2.2463624477386475 -1.6404792070388794 -0.13750305771827698
0.8592157959938049 0.65052729845047 -0.12564732134342194
3.314337730407715 0.726279079914093 -0.3871811628341675
2.248198986053467 -1.6292191743850708 -0.14016379415988922
2.061785936355591 -3.5496246814727783 -0.015045576728880405
0.837056577205658 0.6388214230537415 -0.12183336913585663
3.316373109817505 0.740081787109375 -0.38774803280830383
2.2077529430389404 -0.46162575483322144 -0.2072511464357376
2.233804702758789 -1.6063340902328491 -0.14082419872283936
2.109520673751831 -3.602790355682373 -0.021131481975317
0.8387144207954407 0.6449647545814514 -0.12166944891214371
3.328238010406494 0.7555462718009949 -0.3888530433177948
2.1849381923675537 -0.44850340485572815 -0.20613153278827667
2.23142671585083 -1.5922490358352661 -0.14318375289440155
2.112527847290039 -3.5777881145477295 -0.026106461882591248
0.8285582065582275 0.6420010328292847 -0.11979527771472931
3.3398995399475098 0.7716906070709229 -0.38995277881622314
2.167085647583008 -0.4361739456653595 -0.20467689633369446
2.2289745807647705 -1.5782018899917603 -0.14552225172519684
2.133280038833618 -3.5828747749328613 -0.03202298656105995
0.8224450945854187 0.6418713331222534 -0.11868128180503845
2.163644790649414 -0.42723602056503296 -0.20575562119483948
2.2224042415618896 -1.5613523721694946 -0.14662033319473267
2.1566736698150635 -3.5921471118927 -0.0365641824901104
0.8201680779457092 0.6449451446533203 -0.11777081340551376
2.165233850479126 -0.4189182221889496 -0.20614053308963776
2.2197937965393066 -1.5473978519439697 -0.14891499280929565
2.174351453781128 -3.593111038208008 -0.04178249090909958
0.8138716816902161 0.6450667381286621 -0.11630377918481827
4.012086391448975 0.9743328094482422 -0.46675652265548706
2.1666486263275146 -0.4109593331813812 -0.2072952538728714
2.229426383972168 -1.542001724243164 -0.15202850103378296
2.1770575046539307 -3.5679924488067627 -0.04741957411170006
0.8076978325843811 0.6450075507164001 -0.11484532058238983
3.998826503753662 0.9873877763748169 -0.46419546008110046
2.168104410171509 -0.40300872921943665 -0.2076801359653473
2.239091396331787 -1.536584496498108 -0.1542043834924698
2.2005717754364014 -3.5769784450531006 -0.05204438418149948
0.8131347298622131 0.6542445421218872 -0.11522102355957031
4.0 1.0032463073730469 -0.46475541591644287
2.159734010696411 -0.3928796052932739 -0.20789195597171783
2.2446186542510986 -1.5283063650131226 -0.15610019862651825
2.213632106781006 -3.5688321590423584 -0.05717521905899048
0.8029735088348389 0.6511638760566711 -0.11322154849767685
3.9914603233337402 1.0174105167388916 -0.4627576470375061
2.161087989807129 -0.38494840264320374 -0.20865821838378906
2.258340358734131 -1.5255649089813232 -0.15952816605567932
2.2313318252563477 -3.569490671157837 -0.06318902224302292
0.7967782020568848 0.6509950757026672 -0.11213849484920502
3.9875242710113525 1.0327290296554565 -0.4627576470375061
2.1525697708129883 -0.3752964437007904 -0.2088560312986374
2.272092580795288 -1.522756814956665 -0.16249945759773254
2.244356870651245 -3.56122088432312 -0.06833187490701675
0.7985444068908691 0.6568658947944641 -0.11159748584032059
3.979062557220459 1.0461146831512451 -0.46076327562332153
2.149052619934082 -0.3661862909793854 -0.20876078307628632
2.281984329223633 -1.5167208909988403 -0.1647089421749115
2.260035753250122 -3.5571279525756836 -0.0728263407945633
0.7922487854957581 0.6568037867546082 -0.11034253984689713
2.160163402557373 -0.35993722081184387 -0.21009624004364014
2.273000717163086 -3.548731565475464 -0.07871063798666
0.8013577461242676 0.6693264245986938 -0.11103058606386185
2.1515958309173584 -0.35002413392066956 -0.21028266847133636
4.573065280914307 -2.9913902282714844 -0.3380557894706726
2.2853283882141113 -3.5407042503356934 -0.08312376588582993
0.7876746654510498 0.6625791192054749 -0.10854624956846237
2.1528279781341553 -0.34213003516197205 -0.21066312491893768
4.575427055358887 -2.9690470695495605 -0.34124627709388733
2.284602165222168 -3.5112667083740234 -0.08774874359369278
0.7850661873817444 0.6657845973968506 -0.10782764852046967
2.1540164947509766 -0.3338443338871002 -0.21180446445941925
4.560851573944092 -2.93588924407959 -0.3441065549850464
2.2974045276641846 -3.502790689468384 -0.0921354815363884
0.7867218852043152 0.6716864705085754 -0.10726533830165863
3.9641120433807373 1.1224778890609741 -0.4548487067222595
2.160109281539917 -0.3266858458518982 -0.21266931295394897
4.592405319213867 -2.932450294494629 -0.34949347376823425
2.3156673908233643 -3.502575397491455 -0.09821817278862
0.7840757966041565 0.6748878955841064 -0.10654312372207642
3.835847854614258 1.10136079788208 -0.4398867189884186
2.166215419769287 -0.3194925785064697 -0.21315376460552216
4.620692253112793 -2.9244678020477295 -0.3565003275871277
2.3373591899871826 -3.506047248840332 -0.10298162698745728
0.7780266404151917 0.6744232773780823 -0.10513240098953247
3.932344675064087 1.1439403295516968 -0.4499610960483551
2.1723153591156006 -0.31187447905540466 -0.2140212208032608
4.638601779937744 -2.914304256439209 -0.36097538471221924
2.404628276824951 -3.5811641216278076 -0.11069496721029282
0.7718712687492371 0.6740583181381226 -0.10373028367757797
3.851675510406494 1.1372630596160889 -0.4391212463378906
2.1782608032226562 -0.3045840263366699 -0.21565821766853333
4.662644863128662 -2.903369903564453 -0.3677138686180115
2.4637415409088135 -3.6375632286071777 -0.11888168752193451
0.7731984257698059 0.6802284121513367 -0.10333516448736191
2.1893134117126465 -0.2975632846355438 -0.21624842286109924
4.6934099197387695 -2.900972843170166 -0.3703467547893524
2.4813761711120605 -3.637561798095703 -0.1222262904047966
0.7743575572967529 0.6865407228469849 -0.10311191529035568
2.1852684020996094 -0.28886017203330994 -0.2176850438117981
4.712687969207764 -2.887938976287842 -0.3768047094345093
2.4945802688598633 -3.628279685974121 -0.12914283573627472
0.7645071148872375 0.6828283071517944 -0.10086820274591446
2.1912589073181152 -0.2810954749584198 -0.2185620218515396
4.749483585357666 -2.884326219558716 -0.3846643269062042
2.5141093730926514 -3.6267764568328857 -0.13405732810497284
0.76967853307724 0.6920493245124817 -0.10130555927753448
2.2307279109954834 0.6943672299385071 -0.25339072942733765
2.192274570465088 -0.27306222915649414 -0.2185620218515396
4.767393112182617 -2.873605966567993 -0.3882696032524109
2.526026725769043 -3.6182823181152344 -0.13944868743419647
0.7635136246681213 0.6915836930274963 -0.09991956502199173
2.193222761154175 -0.2650207281112671 -0.2189476042985916
4.807626247406006 -2.873887300491333 -0.39461538195610046
2.5449373722076416 -3.6170520782470703 -0.14439597725868225
0.7573739290237427 0.6910927295684814 -0.0983632355928421
2.1991279125213623 -0.2571708858013153 -0.21982716023921967
4.8265299797058105 -2.8612282276153564 -0.3982560634613037
2.560979127883911 -3.6116514205932617 -0.14919567108154297
0.7547776699066162 0.694053590297699 -0.09746846556663513
2.209866762161255 -0.25021985173225403 -0.22159147262573242
4.849519729614258 -2.8508877754211426 -0.4052092432975769
2.5769968032836914 -3.6061553955078125 -0.15477925539016724
0.7522908449172974 0.696872889995575 -0.096573606133461
2.2157187461853027 -0.2422693371772766 -0.22247624397277832
4.873606204986572 -2.8387844562530518 -0.4102245569229126
2.591339588165283 -3.595625638961792 -0.16019421815872192
0.7427552938461304 0.6926305294036865 -0.09474977105855942
2.221500873565674 -0.23466522991657257 -0.22336271405220032
4.891809463500977 -2.8265645503997803 -0.4158804714679718
2.6031317710876465 -3.586851119995117 -0.1656089425086975
0.747529149055481 0.7022221684455872 -0.09478369355201721
1.4657704830169678 0.4927167296409607 -0.16362136602401733
2.237234592437744 -0.22764450311660767 -0.22485512495040894
4.919252872467041 -2.81842303276062 -0.42031726241111755
2.6220555305480957 -3.585209846496582 -0.17063379287719727
0.7412830591201782 0.7017320990562439 -0.0932547077536583
1.4686018228530884 0.4999528229236603 -0.1638767123222351
2.2626922130584717 -0.2218589037656784 -0.22853289544582367
4.947615146636963 -2.8083527088165283 -0.42576780915260315
2.635676860809326 -3.5749452114105225 -0.1760602593421936
0.7390105724334717 0.7042423486709595 -0.09236389398574829
1.4670168161392212 0.504848062992096 -0.1630644053220749
2.258500099182129 -0.21349111199378967 -0.22803284227848053
4.982639789581299 -2.806427478790283 -0.43299728631973267
2.650383949279785 -3.5700464248657227 -0.18091458082199097
0.740074872970581 0.7104505300521851 -0.09191922843456268
1.4603630304336548 0.5091238617897034 -0.1617320030927658
2.264253854751587 -0.2048679143190384 -0.22892969846725464
5.001332759857178 -2.7928595542907715 -0.43775153160095215
2.6603240966796875 -3.55612850189209 -0.18613725900650024
0.7337066531181335 0.7100186347961426 -0.09040387719869614
1.4584506750106812 0.5147463083267212 -0.1611921340227127
2.2649893760681152 -0.19656763970851898 -0.22892969846725464
5.034599781036377 -2.7838361263275146 -0.4426687955856323
2.686492681503296 -3.5612151622772217 -0.19164630770683289
0.727836549282074 0.7090269923210144 -0.0890761986374855
2.260664224624634 -0.18824400007724762 -0.2288247048854828
5.056711673736572 -2.77420711517334 -0.4468395709991455
2.698164224624634 -3.5521247386932373 -0.1963176429271698
0.7252991199493408 0.7117548584938049 -0.08801209181547165
2.2662980556488037 -0.1803516447544098 -0.2293265014886856
5.0840864181518555 -2.765031337738037 -0.45242488384246826
2.720146894454956 -3.5539462566375732 -0.20166395604610443
0.7298256158828735 0.721466600894928 -0.08797942847013474
1.2520623207092285 0.457198828458786 -0.13750934600830078
2.2718541622161865 -0.1720178872346878 -0.23062363266944885
5.10699987411499 -2.753286361694336 -0.4586571753025055
2.7360520362854004 -3.5477097034454346 -0.2073628008365631
0.7200555205345154 0.7172960042953491 -0.08606097102165222
1.2224154472351074 0.45170021057128906 -0.13329358398914337
2.2774481773376465 -0.16324952244758606 -0.23152567446231842
5.138823986053467 -2.7461819648742676 -0.463678240776062
2.755031108856201 -3.5453720092773438 -0.21252714097499847
0.7142074108123779 0.7162046432495117 -0.08475647866725922
1.2068381309509277 0.45097821950912476 -0.13109275698661804
5.17987585067749 -2.742602825164795 -0.470546692609787
2.7641494274139404 -3.5315933227539062 -0.21777001023292542
0.7151349186897278 0.722411036491394 -0.08428695052862167
1.1959342956542969 0.45190590620040894 -0.12941108644008636
5.198500633239746 -2.728116273880005 -0.47442102432250977
2.7924180030822754 -3.5408942699432373 -0.22291789948940277
0.7160366773605347 0.7286442518234253 -0.08363037556409836
1.1803126335144043 0.45118972659111023 -0.12723883986473083
1.7974705696105957 -0.10836363583803177 -0.18291190266609192
5.172726154327393 -2.6904561519622803 -0.47628745436668396
2.8052303791046143 -3.5304508209228516 -0.22764010727405548
0.7029618620872498 0.720603346824646 -0.08170373737812042
1.1645523309707642 0.4505313038825989 -0.12595394253730774
1.7928255796432495 -0.10149010270833969 -0.18303343653678894
5.169748783111572 -2.662595510482788 -0.48115605115890503
2.822275161743164 -3.522775411605835 -0.23498289287090302
0.7107866406440735 0.7339874505996704 -0.081668920814991
1.1677489280700684 0.4564606547355652 -0.12492405623197556
1.798233151435852 -0.09487085044384003 -0.18291190266609192
5.161185264587402 -2.6354310512542725 -0.48051828145980835
2.8432421684265137 -3.5249273777008057 -0.23892438411712646
0.7046766877174377 0.7330352663993835 -0.08056069165468216
1.1614611148834229 0.4589172601699829 -0.12421036511659622
1.803442120552063 -0.0891496017575264 -0.18404747545719147
5.143758773803711 -2.6028082370758057 -0.4830701947212219
2.8433609008789062 -3.4987549781799316 -0.24337896704673767
0.7023094296455383 0.7354386448860168 -0.07931835949420929
1.1505898237228394 0.4595043957233429 -0.12257194519042969
1.8136770725250244 -0.08267579972743988 -0.18537838757038116
5.144129753112793 -2.5793581008911133 -0.485248327255249
2.8243744373321533 -3.4494826793670654 -0.24535253643989563
0.6995276808738708 0.7381798028945923 -0.0784309059381485
1.1442623138427734 0.4620796740055084 -0.1214335709810257
1.8189377784729004 -0.07623607665300369 -0.18588626384735107
5.135473728179932 -2.5515058040618896 -0.4865703582763672
2.798712730407715 -3.3926963806152344 -0.24666133522987366
0.7002894282341003 0.7444295883178711 -0.07774512469768524
1.1794785261154175 0.4813362658023834 -0.12468376755714417
1.8241102695465088 -0.0697564110159874 -0.18703137338161469
5.113560199737549 -2.516183614730835 -0.4885847568511963
2.7854089736938477 -3.351469039916992 -0.24974581599235535
0.6908054351806641 0.7397620677947998 -0.0759267583489418
1.8243645429611206 -0.06275182962417603 -0.18703137338161469
5.1090850830078125 -2.4907634258270264 -0.4902796745300293
2.771897077560425 -3.3104522228240967 -0.25122517347335815
0.6881342530250549 0.7423373460769653 -0.0750434547662735
1.834525465965271 -0.05637031048536301 -0.18805061280727386
5.104491233825684 -2.465409517288208 -0.4919588267803192
2.76450252532959 -3.2771434783935547 -0.25472086668014526
0.6823262572288513 0.7409853339195251 -0.07397057861089706
1.1972768306732178 0.5037806630134583 -0.1255321204662323
1.8446729183197021 -0.04959319159388542 -0.18906985223293304
5.095713138580322 -2.4370839595794678 -0.49318721890449524
2.744000196456909 -3.2287535667419434 -0.2561929523944855
0.6931250095367432 0.7582710385322571 -0.07418028265237808
1.2455894947052002 0.5302614569664001 -0.13011394441127777
1.8597601652145386 -0.04317814111709595 -0.1905987411737442
5.086215972900391 -2.4096758365631104 -0.496359258890152
2.7328903675079346 -3.191899061203003 -0.2592145502567291
0.6769872903823853 0.7460893988609314 -0.07168492674827576
1.2896177768707275 0.5540634989738464 -0.13416264951229095
1.854939341545105 -0.03594052419066429 -0.19008910655975342
5.08125114440918 -2.384559392929077 -0.4979804754257202
2.7183470726013184 -3.151458501815796 -0.2603837251663208
0.6676218509674072 0.7412090301513672 -0.06993058323860168
1.2920342683792114 0.5612562894821167 -0.13365498185157776
1.8848412036895752 -0.028951358050107956 -0.19380486011505127
5.067139148712158 -2.355313301086426 -0.4986969828605652
2.716606616973877 -3.1262004375457764 -0.26347213983535767
0.6682738065719604 0.7474236488342285 -0.0692303404211998
1.2809925079345703 0.5617831945419312 -0.13222217559814453
1.9097979068756104 -0.02266700193285942 -0.19636166095733643
5.06233549118042 -2.3294849395751953 -0.5002814531326294
2.698284149169922 -3.0822250843048096 -0.2649051249027252
0.6622585654258728 0.7461820244789124 -0.06801529228687286
1.256056547164917 0.5568699240684509 -0.12891028821468353
1.904900074005127 -0.014961357228457928 -0.19585029780864716
5.021474838256836 -2.286301374435425 -0.49921560287475586
2.6928465366363525 -3.0533604621887207 -0.26826587319374084
0.6565280556678772 0.7446848750114441 -0.0666356310248375
1.2723428010940552 0.5694129467010498 -0.1300487071275711
1.9049406051635742 -0.0083119235932827 -0.19585029780864716
2.682926893234253 -3.021853446960449 -0.26981988549232483
0.6475191712379456 0.7393947839736938 -0.06510824710130692
1.9049582481384277 -0.001329911989159882 -0.19585029780864716
4.340906620025635 -1.9408721923828125 -0.4360903203487396
2.673809051513672 -2.9894425868988037 -0.27272143959999084
0.6513959765434265 0.7493453621864319 -0.06472953408956528
1.914933204650879 0.005347515922039747 -0.1965387910604477
4.329570770263672 -1.916793942451477 -0.43674302101135254
2.6511971950531006 -2.9423868656158447 -0.27278581261634827
0.6421766877174377 0.7442314028739929 -0.0628780797123909
1.8999792337417603 0.012269701808691025 -0.19500732421875
4.331797122955322 -1.898821473121643 -0.43876028060913086
2.6517133712768555 -2.9213571548461914 -0.2758868336677551
0.6394800543785095 0.7466214895248413 -0.062020234763622284
1.9098654985427856 0.019667424261569977 -0.19602830708026886
4.3252129554748535 -1.8761698007583618 -0.43902042508125305
2.642012596130371 -2.889319658279419 -0.2778942286968231
0.6499772667884827 0.7639908194541931 -0.06222914904356003
1.9097806215286255 0.02666729874908924 -0.19602830708026886
4.313551902770996 -1.8523564338684082 -0.439624160528183
2.628767490386963 -2.8537607192993164 -0.2788022458553314
0.6504274606704712 0.7702221870422363 -0.06165902689099312
1.924548864364624 0.034265127032995224 -0.19789573550224304
4.3065338134765625 -1.829789400100708 -0.44230905175209045
2.625440835952759 -2.8292694091796875 -0.28141090273857117
0.6572596430778503 0.7841249704360962 -0.061503343284130096
1.9293829202651978 0.04142548888921738 -0.19840708374977112
4.308408737182617 -1.8119730949401855 -0.4442858397960663
2.6049439907073975 -2.7866270542144775 -0.28213346004486084
0.6544288396835327 0.7865858674049377 -0.06025327742099762
1.934181809425354 0.04895932227373123 -0.1989184468984604
4.30109167098999 -1.7903717756271362 -0.4444926381111145
2.601229190826416 -2.7622883319854736 -0.2852940261363983
0.6579381823539734 0.7967252731323242 -0.05975910648703575
1.9390652179718018 0.0561952218413353 -0.19841410219669342
4.293912410736084 -1.7680697441101074 -0.4454995095729828
2.5837481021881104 -2.723654270172119 -0.28491589426994324
0.6740400195121765 0.8223440051078796 -0.0603778138756752
1.938846230506897 0.06330187618732452 -0.19841410219669342
4.286320209503174 -1.746597409248352 -0.446490615606308
2.5831730365753174 -2.7031362056732178 -0.28769636154174805
0.6679168939590454 0.8209928274154663 -0.058801356703042984
1.9385888576507568 0.0707460269331932 -0.19841410219669342
4.274615287780762 -1.7218517065048218 -0.4469831883907318
2.57650089263916 -2.6745765209198 -0.2896675169467926
0.6620911955833435 0.8193674683570862 -0.05742086470127106
4.261963844299316 -1.6994889974594116 -0.4466540217399597
2.56782865524292 -2.6479437351226807 -0.2909424304962158
0.6653684377670288 0.8296249508857727 -0.05685149505734444
4.263317584991455 -1.681944489479065 -0.4485693573951721
2.5498597621917725 -2.6092913150787354 -0.29225456714630127
0.6467997431755066 0.8125563859939575 -0.05479191988706589
4.264815330505371 -1.6636396646499634 -0.45127832889556885
2.545241355895996 -2.5855391025543213 -0.29382380843162537
0.6376615166664124 0.8071299195289612 -0.05318792909383774
4.217371940612793 0.21733281016349792 -0.4319322407245636
4.252094745635986 -1.640746831893921 -0.45170271396636963
2.529884099960327 -2.5511679649353027 -0.2953883111476898
0.6409067511558533 0.8173786997795105 -0.0522540882229805
4.226555347442627 0.23334132134914398 -0.4322110116481781
4.2625813484191895 -1.6268690824508667 -0.4537884593009949
2.521463394165039 -2.5241050720214844 -0.2958306670188904
0.6412888765335083 0.8234752416610718 -0.051594506949186325
4.21577262878418 0.24898630380630493 -0.4304581582546234
4.282538414001465 -1.6156742572784424 -0.457669734954834
2.519873857498169 -2.5040905475616455 -0.2983115017414093
0.6382989883422852 0.8258624076843262 -0.050501495599746704
4.214831829071045 0.2644362151622772 -0.4304581582546234
4.306926250457764 -1.6068674325942993 -0.4612642228603363
2.5004374980926514 -2.4666271209716797 -0.298642635345459
0.6413791179656982 0.8361636996269226 -0.0498812310397625
4.203933238983154 0.2799619138240814 -0.4287087917327881
4.331507205963135 -1.5971184968948364 -0.465678334236145
2.498596429824829 -2.4468064308166504 -0.3004237711429596
0.6384980082511902 0.8384519815444946 -0.04840977489948273
4.2128777503967285 0.29607093334198 -0.42898398637771606
4.355873107910156 -1.5879915952682495 -0.46930399537086487
2.496605634689331 -2.426995277404785 -0.3027862310409546
0.6267004013061523 0.8286464810371399 -0.046814847737550735
4.211709976196289 0.3122449815273285 -0.42898398637771606
4.380151271820068 -1.578678846359253 -0.4737560749053955
2.483750581741333 -2.396854877471924 -0.303801953792572
0.6353912949562073 0.8471852540969849 -0.04642137512564659
4.205651760101318 0.3272993862628937 -0.42774245142936707
4.395396709442139 -1.5651304721832275 -0.4763970673084259
2.485548734664917 -2.3802268505096436 -0.305928498506546
0.6355911493301392 0.8533324003219604 -0.04552612453699112
4.189624309539795 0.3415053188800812 -0.42549556493759155
4.4242472648620605 -1.5571553707122803 -0.48221102356910706
2.4760148525238037 -2.353760242462158 -0.30669620633125305
0.6384261250495911 0.8637288212776184 -0.0448288656771183
1.2448115348815918 0.694846510887146 -0.1119476854801178
4.193238735198975 0.3580129146575928 -0.42599913477897644
2.466243267059326 -2.3273229598999023 -0.3086039423942566
0.6618767380714417 0.9023556709289551 -0.04553356021642685
1.2379804849624634 0.6969969272613525 -0.1105644553899765
4.18701696395874 0.37294474244117737 -0.42476189136505127
3.598184585571289 -1.2361451387405396 -0.39450952410697937
2.456390619277954 -2.301063299179077 -0.30927544832229614
0.6527124047279358 0.896734893321991 -0.04396555572748184
1.2483656406402588 0.709170401096344 -0.11072598397731781
4.185628414154053 0.38902580738067627 -0.424028217792511
3.602987051010132 -1.2216469049453735 -0.39583754539489746
2.447173833847046 -2.274054527282715 -0.3099033236503601
0.6497617959976196 0.8989312648773193 -0.042804054915905
1.2328475713729858 0.7063442468643188 -0.10858066380023956
4.149585723876953 0.4010215699672699 -0.4197879731655121
3.6165285110473633 -1.21217942237854 -0.39820387959480286
2.440263271331787 -2.251810073852539 -0.31095367670059204
0.634844183921814 0.8851080536842346 -0.04070208594202995
1.25190007686615 0.7233676314353943 -0.10947620868682861
3.6490726470947266 -1.2082287073135376 -0.4033316373825073
2.4335761070251465 -2.2291805744171143 -0.3125450313091278
0.6433713436126709 0.9036403894424438 -0.04009370505809784
1.2495603561401367 0.7275534868240356 -0.10846678912639618
2.437845230102539 -2.2167134284973145 -0.3149491846561432
0.6371956467628479 0.9019449949264526 -0.038756683468818665
1.156669020652771 0.6791564226150513 -0.09944181889295578
3.4574532508850098 0.37376803159713745 -0.34833645820617676
2.427276134490967 -2.1909048557281494 -0.31542399525642395
0.6284807920455933 0.8958986401557922 -0.03745095431804657
3.480978012084961 0.3879936635494232 -0.3502168357372284
4.64755392074585 -1.480542778968811 -0.516968846321106
2.405432939529419 -2.1552419662475586 -0.314401775598526
0.6249122023582458 0.8984614610671997 -0.03573188930749893
1.1259697675704956 0.6725451350212097 -0.0953926220536232
2.4023284912109375 -2.13588809967041 -0.3157538175582886
0.6162669062614441 0.892329752445221 -0.03445921838283539
1.1320981979370117 0.6818478107452393 -0.09519543498754501
4.786396026611328 -1.4852995872497559 -0.5346962213516235
2.394927978515625 -2.113642930984497 -0.31770142912864685
0.6186655759811401 0.902862012386322 -0.033439673483371735
1.1552249193191528 0.7015595436096191 -0.09640725702047348
4.777278900146484 -1.4632964134216309 -0.5357210636138916
2.3913064002990723 -2.094905376434326 -0.3178814649581909
0.6183432936668396 0.9091817736625671 -0.03224906325340271
4.773164749145508 -1.4420125484466553 -0.5363954901695251
2.3874964714050293 -2.076150894165039 -0.31915023922920227
0.6122298836708069 0.9073264598846436 -0.030956272035837173
4.134374141693115 0.5406306982040405 -0.4132389724254608
4.759182453155518 -1.4187740087509155 -0.5359898805618286
2.3797316551208496 -2.054129123687744 -0.3209839463233948
0.5950185060501099 0.8888280391693115 -0.02894275262951851
4.122619152069092 0.555202066898346 -0.4100746512413025
4.754876613616943 -1.3976329565048218 -0.5366467833518982
2.3798325061798096 -2.038322687149048 -0.32270270586013794
0.6028344035148621 0.9076824188232422 -0.028342697769403458
0.9337998032569885 0.5859986543655396 -0.07515689730644226
4.140343189239502 0.5730471014976501 -0.4113072156906128
4.406503200531006 -1.2777059078216553 -0.4984169900417328
2.3757479190826416 -2.0197761058807373 -0.3233431279659271
0.5998371243476868 0.9097007513046265 -0.02720162272453308
0.931597888469696 0.5896146893501282 -0.07419480383396149
4.133359432220459 0.5875281691551208 -0.4100889265537262
4.377755165100098 -1.25116765499115 -0.49622637033462524
2.3639156818389893 -1.994836449623108 -0.3234640061855316
0.6185721158981323 0.9452773332595825 -0.026819702237844467
0.9168674945831299 0.5850092768669128 -0.07223854959011078
3.9293317794799805 0.5739279389381409 -0.3886626958847046
4.334386825561523 -1.221606969833374 -0.49159500002861023
2.356090784072876 -1.9727941751480103 -0.324065625667572
0.609677255153656 0.9391794204711914 -0.025214387103915215
0.9189659357070923 0.5910987854003906 -0.07161642611026764
3.8044328689575195 0.5685763359069824 -0.37581518292427063
4.3436689376831055 -1.2062389850616455 -0.4937112629413605
2.351616144180298 -1.9544302225112915 -0.32516103982925415
0.5981254577636719 0.9288209080696106 -0.023719821125268936
0.9335808753967285 0.6053482890129089 -0.07214771956205368
3.787529945373535 0.5809265971183777 -0.37368786334991455
4.371862888336182 -1.1968265771865845 -0.4980151951313019
2.343203544616699 -1.93296217918396 -0.32569706439971924
0.5977498888969421 0.9350348711013794 -0.02247132547199726
3.8101494312286377 0.5986975431442261 -0.37409499287605286
4.362030029296875 -1.1761494874954224 -0.49637699127197266
2.3350002765655518 -1.9111757278442383 -0.32619816064834595
0.5970101952552795 0.9414637088775635 -0.021210579201579094
3.7979960441589355 0.6117402911186218 -0.37312960624694824
4.365975856781006 -1.1600645780563354 -0.4995309114456177
2.3263802528381348 -1.8899238109588623 -0.3261411786079407
1.259572982788086 0.8365414142608643 -0.09433593600988388
3.800830841064453 0.6264975666999817 -0.3715953826904297
4.4134979248046875 -1.1545668840408325 -0.5060691833496094
2.3253307342529297 -1.8749656677246094 -0.327666312456131
1.2775864601135254 0.8546239733695984 -0.094819575548172
4.102851867675781 0.6917359828948975 -0.4006352126598358
4.436949729919434 -1.143343210220337 -0.5082743167877197
2.3128855228424072 -1.8503211736679077 -0.32752522826194763
0.6605050563812256 1.0669480562210083 -0.019493671134114265
1.2952039241790771 0.8732970952987671 -0.09499568492174149
4.09539794921875 0.7066619396209717 -0.39870530366897583
4.67725133895874 -1.1861326694488525 -0.5361289381980896
2.3039052486419678 -1.8293285369873047 -0.3273809254169464
1.3044325113296509 0.8864914178848267 -0.09480515122413635
4.092848777770996 0.7216796875 -0.3979799747467041
4.681385517120361 -1.1689363718032837 -0.5378131866455078
2.3025639057159424 -1.8145434856414795 -0.32883337140083313
1.3259360790252686 0.908227264881134 -0.09548325836658478
4.090184211730957 0.7374143600463867 -0.3965292274951935
4.675822734832764 -1.1484922170639038 -0.5400669574737549
2.2932727336883545 -1.7936352491378784 -0.32965293526649475
0.7579795122146606 1.253547191619873 -0.01764223352074623
4.087657451629639 0.7524381875991821 -0.3943530321121216
4.6704325675964355 -1.1290338039398193 -0.5381136536598206
2.288231372833252 -1.7755740880966187 -0.3294818699359894
0.7431053519248962 1.2391831874847412 -0.015636099502444267
4.085007190704346 0.7674404382705688 -0.3929021954536438
4.655214309692383 -1.1064529418945312 -0.5375580191612244
2.2865779399871826 -1.7609021663665771 -0.33137401938438416
0.7283452749252319 1.2247247695922852 -0.013678806833922863
4.072186470031738 0.7812315821647644 -0.39268481731414795
4.639702796936035 -1.0848157405853271 -0.5369884967803955
2.2812514305114746 -1.7428869009017944 -0.3321683406829834
4.069563865661621 0.7962040901184082 -0.38978996872901917
4.638900279998779 -1.0658589601516724 -0.5372592806816101
2.2795701026916504 -1.7284072637557983 -0.3325169086456299
4.071699619293213 0.8121280074119568 -0.3880840241909027
4.633082389831543 -1.0466595888137817 -0.5361376404762268
2.2737526893615723 -1.710908055305481 -0.333268404006958
0.6452065110206604 1.1112509965896606 -0.007401027716696262
4.058926582336426 0.8257980346679688 -0.3857074975967407
4.627275466918945 -1.0266896486282349 -0.5358432531356812
2.2721598148345947 -1.6960846185684204 -0.33408471941947937
0.6311540603637695 1.096281886100769 -0.0059611499309539795
4.056004047393799 0.8406963348388672 -0.3842616081237793
2.2741360664367676 -1.6846156120300293 -0.3359695076942444
0.6198880076408386 1.0854582786560059 -0.004363314248621464
0.883656919002533 0.644137442111969 -0.05711701884865761
4.047940731048584 0.8552488088607788 -0.3830776810646057
2.2683961391448975 -1.666912317276001 -0.3361665606498718
0.6035894751548767 1.0659724473953247 -0.002779434435069561
0.8813378214836121 0.6474069952964783 -0.05597187206149101
4.0401716232299805 0.8690884113311768 -0.3797317147254944
2.197624921798706 -0.4615100622177124 -0.25505542755126953
2.258302927017212 -1.6467828750610352 -0.33525848388671875
0.5976032614707947 1.0636112689971924 -0.0012775808572769165
0.8671884536743164 0.6414514780044556 -0.05407560244202614
4.037217140197754 0.8839470744132996 -0.3768465518951416
2.1846609115600586 -0.4504336714744568 -0.25375187397003174
2.248283624649048 -1.6262900829315186 -0.3352981507778168
0.5987551212310791 1.0744264125823975 0.0004293509991839528
0.8648689985275269 0.6446534991264343 -0.053134284913539886
4.029154300689697 0.897669792175293 -0.37567204236984253
2.1668968200683594 -0.43810388445854187 -0.2514913082122803
2.245973825454712 -1.6121134757995605 -0.33602869510650635
0.6020660996437073 1.089741587638855 0.002172933891415596
0.8625444769859314 0.6478521227836609 -0.052004650235176086
4.030789375305176 0.9142933487892151 -0.37323981523513794
2.1636581420898438 -0.42920076847076416 -0.25054118037223816
2.239874839782715 -1.5947399139404297 -0.33565858006477356
0.5956640243530273 1.0875519514083862 0.003895568661391735
0.8681720495223999 0.6570698618888855 -0.051346033811569214
4.022810935974121 0.9279996156692505 -0.3699079751968384
2.165290117263794 -0.4208897650241852 -0.25054118037223816
2.233400583267212 -1.577826976776123 -0.33527275919914246
0.603060245513916 1.100599765777588 0.004818842280656099
0.8524032235145569 0.6449013948440552 -0.04909806326031685
4.023310661315918 0.9281148910522461 -0.3641432225704193
2.1606688499450684 -0.41999146342277527 -0.24767202138900757
2.233961582183838 -1.5776389837265015 -0.33240899443626404
0.6191853880882263 1.1202656030654907 0.00379783078096807
0.8707171082496643 0.6537529230117798 -0.050585899502038956
4.021986961364746 0.9115586280822754 -0.3637039363384247
2.1688497066497803 -0.43101751804351807 -0.2468605935573578
2.231658697128296 -1.590064287185669 -0.3301429748535156
0.6255277991294861 1.122468113899231 0.0022427469957619905
0.8690738081932068 0.6475517153739929 -0.05111049860715866
4.035024166107178 0.8989774584770203 -0.36458247900009155
2.1770803928375244 -0.4409538507461548 -0.24719470739364624
2.2502923011779785 -1.6158082485198975 -0.33083057403564453
0.6345382928848267 1.1288865804672241 0.0011301004560664296
0.863388180732727 0.6384073495864868 -0.05120166763663292
4.033580780029297 0.8824130892753601 -0.3641432225704193
2.1998322010040283 -0.4543622136116028 -0.2487836480140686
2.248656749725342 -1.6271580457687378 -0.32851698994636536
0.6436036825180054 1.135252833366394 -0.00022776545665692538
0.8737536072731018 0.6411317586898804 -0.05224541202187538
4.04658842086792 0.8697298169136047 -0.36429932713508606
2.217818260192871 -0.46655914187431335 -0.24900759756565094
2.262775182723999 -1.6506489515304565 -0.32803380489349365
0.6696871519088745 1.1721843481063843 -0.0016493357252329588
0.8760679364204407 0.6379033327102661 -0.053001996129751205
4.044900417327881 0.8531315326690674 -0.36530399322509766
2.2694807052612305 -1.6670993566513062 -0.3278128206729889
0.6864591240882874 1.191381812095642 -0.0028797911945730448
4.057754039764404 0.8403204679489136 -0.36618420481681824
2.275064468383789 -1.6853033304214478 -0.32608845829963684
0.7159390449523926 1.2320841550827026 -0.004974178038537502
4.050983428955078 0.8234455585479736 -0.36602547764778137
4.6387715339660645 -1.0309394598007202 -0.517066240310669
2.2807905673980713 -1.703147053718567 -0.3248240351676941
0.7404494285583496 1.2640867233276367 -0.006647935602813959
4.058873176574707 0.8088330626487732 -0.36791113018989563
4.639986038208008 -1.0490703582763672 -0.515946626663208
2.2826530933380127 -1.7176053524017334 -0.3239635229110718
0.7450743317604065 1.2613588571548462 -0.00792637374252081
4.076474666595459 0.7968174815177917 -0.36923933029174805
4.645875930786133 -1.069169282913208 -0.5145288109779358
2.2845299243927 -1.7321679592132568 -0.32208824157714844
0.7420109510421753 1.2457234859466553 -0.009616692550480366
4.069657802581787 0.7792736887931824 -0.36907708644866943
4.651765823364258 -1.0893487930297852 -0.5122665762901306
2.290278911590576 -1.7497841119766235 -0.3207448124885559
0.7589966654777527 1.2646820545196533 -0.011327075771987438
4.077254295349121 0.7652472853660583 -0.3709687888622284
4.662725448608398 -1.1082382202148438 -0.5130292773246765
2.2922110557556152 -1.7639658451080322 -0.3198316693305969
0.7610328197479248 1.2576051950454712 -0.012571453116834164
4.094789505004883 0.7530121803283691 -0.3715781569480896
4.682376861572266 -1.1336512565612793 -0.5140085816383362
2.3050527572631836 -1.7886266708374023 -0.3190150558948517
0.768011748790741 1.2591933012008667 -0.01467361394315958
1.3472473621368408 0.9221342206001282 -0.0884188562631607
4.087719917297363 0.7354969382286072 -0.372139036655426
4.678451061248779 -1.150869607925415 -0.5114859938621521
2.30257248878479 -1.8002614974975586 -0.31751808524131775
1.3092774152755737 0.889116108417511 -0.08654359728097916
4.100261688232422 0.722248911857605 -0.3723047971725464
4.688641548156738 -1.1724870204925537 -0.511382520198822
2.3037123680114746 -1.815448522567749 -0.3155267834663391
1.3000560998916626 0.8759087920188904 -0.08681897819042206
4.10287618637085 0.7064775824546814 -0.37375807762145996
4.535484790802002 -1.1501812934875488 -0.4934397339820862
2.3212192058563232 -1.8417552709579468 -0.31666693091392517
1.2783050537109375 0.8544588088989258 -0.0862334743142128
3.8401939868927 0.6467629075050354 -0.3502954840660095
4.430161476135254 -1.1415939331054688 -0.48003247380256653
2.3264050483703613 -1.8598054647445679 -0.31462228298187256
0.6260669827461243 0.9941775798797607 -0.01661061681807041
3.7835144996643066 0.6229649782180786 -0.3455893397331238
4.4016523361206055 -1.1531099081039429 -0.47583529353141785
2.334291934967041 -1.8821911811828613 -0.31410661339759827
0.5975422859191895 0.9412128925323486 -0.01692991703748703
3.7957117557525635 0.6100131273269653 -0.34648698568344116
4.392910003662109 -1.1680419445037842 -0.47214198112487793
2.343071937561035 -1.9034839868545532 -0.31302914023399353
0.6009798049926758 0.939003586769104 -0.017902817577123642
0.9239152669906616 0.6027524471282959 -0.06399332731962204
3.773383617401123 0.5922456383705139 -0.34357625246047974
4.369345664978027 -1.179758071899414 -0.4684959352016449
2.347878932952881 -1.9217166900634766 -0.3113991320133209
0.6042397618293762 0.9368782043457031 -0.019459431990981102
0.9218806028366089 0.5966195464134216 -0.06466205418109894
3.770529270172119 0.5769720673561096 -0.34512558579444885
4.360274791717529 -1.1944721937179565 -0.4671920835971832
2.3562958240509033 -1.9430711269378662 -0.3118419945240021
0.6209509968757629 0.9558154940605164 -0.02089042216539383
0.9156227707862854 0.5878193974494934 -0.0648338571190834
3.96955943107605 0.5925463438034058 -0.3638482987880707
4.370612144470215 -1.2137211561203003 -0.46715062856674194
2.3574025630950928 -1.957848310470581 -0.30964890122413635
0.6189623475074768 0.9451534152030945 -0.02169310860335827
0.9303620457649231 0.5924777388572693 -0.0664961189031601
4.139350891113281 0.6016526222229004 -0.37919673323631287
4.371235370635986 -1.2311688661575317 -0.464492529630661
2.3656797409057617 -1.9794187545776367 -0.3089679479598999
0.6089590191841125 0.921783447265625 -0.022562921047210693
0.940946638584137 0.594382107257843 -0.06748639047145844
4.136531829833984 0.5857696533203125 -0.3794744908809662
2.376976490020752 -2.005147933959961 -0.3082032799720764
0.6064605116844177 0.9114153981208801 -0.023505162447690964
4.143518447875977 0.5712755918502808 -0.38065680861473083
2.381190538406372 -2.0236871242523193 -0.3069557249546051
0.6153517365455627 0.9174684882164001 -0.02487669512629509
4.140679836273193 0.5546914339065552 -0.3809328079223633
4.77235221862793 -1.4045796394348145 -0.5018085837364197
2.3925437927246094 -2.0492098331451416 -0.3061009645462036
0.6269294023513794 0.9277137517929077 -0.02658235840499401
1.2445284128189087 0.767436683177948 -0.0917329266667366
4.13768196105957 0.5388597846031189 -0.38120704889297485
4.772107124328613 -1.4235339164733887 -0.5005720853805542
2.388986349105835 -2.0613901615142822 -0.3038310110569
0.6190512180328369 0.908857524394989 -0.027451179921627045
1.260048747062683 0.7706471681594849 -0.09370335191488266
4.144594192504883 0.5235840082168579 -0.3823910355567932
4.7810587882995605 -1.446218729019165 -0.500328779220581
2.392883777618408 -2.0801022052764893 -0.30250194668769836
0.6277000308036804 0.9150187969207764 -0.02886274643242359
4.151427268981934 0.5089957118034363 -0.3828468322753906
4.790675163269043 -1.4664852619171143 -0.5000749230384827
2.404900074005127 -2.1045897006988525 -0.3020876944065094
0.6285096406936646 0.908360481262207 -0.029696693643927574
1.2187620401382446 0.7325956225395203 -0.09245491027832031
4.158143043518066 0.4943564832210541 -0.3840334713459015
4.747067451477051 -1.474003553390503 -0.492632120847702
2.407867670059204 -2.1243152618408203 -0.30013689398765564
0.6286427974700928 0.9021445512771606 -0.030713804066181183
1.1997193098068237 0.7157440185546875 -0.0915643721818924
4.164890289306641 0.4789479076862335 -0.38522180914878845
4.637118339538574 -1.4594087600708008 -0.48008641600608826
2.414771318435669 -2.1469509601593018 -0.2991786003112793
0.6376710534095764 0.907987654209137 -0.03215494006872177
1.1982465982437134 0.7083588242530823 -0.09196621179580688
4.171794891357422 0.46278154850006104 -0.38494670391082764
4.60835075378418 -1.4689401388168335 -0.474252849817276
2.436828374862671 -2.182605504989624 -0.29886993765830994
0.6352003812789917 0.8974577784538269 -0.03301667049527168
1.2006702423095703 0.7041473984718323 -0.09269502758979797
4.168367385864258 0.4476775825023651 -0.38522180914878845
2.436399459838867 -2.1983683109283447 -0.296916127204895
0.6413636803627014 0.8991587162017822 -0.03451612591743469
1.1902493238449097 0.6921854615211487 -0.09265957027673721
4.169980049133301 0.4323967397212982 -0.38522180914878845
2.4432952404022217 -2.2208900451660156 -0.29526084661483765
0.6384930610656738 0.888884425163269 -0.035158850252628326
1.1970434188842773 0.6902778744697571 -0.0939600020647049
4.181451320648193 0.41736432909965515 -0.38687023520469666
3.585618257522583 -1.187912940979004 -0.3663717210292816
2.446347713470459 -2.2400941848754883 -0.2937023639678955
0.6474215984344482 0.8947064876556396 -0.037021975964307785
1.1951490640640259 0.6833606958389282 -0.09506255388259888
4.18770694732666 0.4024926722049713 -0.3895314633846283
3.5860798358917236 -1.2026700973510742 -0.3655341565608978
2.459878921508789 -2.2699108123779297 -0.2934274971485138
0.6536253690719604 0.8963440656661987 -0.037963978946208954
1.2193126678466797 0.6912592649459839 -0.09727396816015244
4.194314479827881 0.38761815428733826 -0.38778701424598694
3.610227108001709 -1.2255070209503174 -0.36509302258491516
2.4700088500976562 -2.296077251434326 -0.292079359292984
0.6657508611679077 0.9059785008430481 -0.04004684463143349
1.2697306871414185 0.7134140729904175 -0.10209864377975464
4.195569038391113 0.3714923560619354 -0.38999247550964355
3.6431500911712646 -1.2523038387298584 -0.36890602111816406
2.483579397201538 -2.325719118118286 -0.29169878363609314
0.6571517586708069 0.8874416351318359 -0.040298569947481155
1.2897186279296875 0.7184380292892456 -0.10427027940750122
4.201930999755859 0.3565390408039093 -0.3897174596786499
2.486168384552002 -2.3453054428100586 -0.2888045907020569
0.6481227278709412 0.8692066669464111 -0.04051537811756134
1.2529869079589844 0.6919713616371155 -0.10209919512271881
4.208231449127197 0.3408040404319763 -0.39017751812934875
4.404008865356445 -1.5508962869644165 -0.44218289852142334
2.49218487739563 -2.3683040142059326 -0.28748849034309387
0.6452757120132446 0.858802080154419 -0.04126689210534096
4.214348316192627 0.3257562816143036 -0.3913753926753998
4.389133930206299 -1.5637634992599487 -0.43880048394203186
2.5016658306121826 -2.3948240280151367 -0.2865496575832367
0.6393453478813171 0.8444467186927795 -0.04180026426911354
4.215445518493652 0.3103027045726776 -0.3921131193637848
4.369467258453369 -1.574828028678894 -0.4357728362083435
2.5033907890319824 -2.414964437484741 -0.2847512364387512
0.6393698453903198 0.8380784392356873 -0.043074965476989746
4.216537952423096 0.2941095530986786 -0.3928508460521698
4.340839385986328 -1.5816525220870972 -0.43021222949028015
2.5098824501037598 -2.437347173690796 -0.2827194929122925
