# .PCD v0.7 - Point Cloud Data file format
VERSION 0.7
FIELDS x y z
SIZE 4 4 4
TYPE F F F
COUNT 1 1 1
WIDTH 845
HEIGHT 1
VIEWPOINT 0 0 0 1 0 0 0
POINTS 845
DATA ascii
4.863887310028076 -1.353447437286377 0.8811366558074951
2.494006872177124 -2.0515177249908447 0.3656560182571411
4.105048179626465 0.6120386719703674 0.8421502113342285
4.877707004547119 -1.3765747547149658 0.885459840297699
2.5016732215881348 -2.0732438564300537 0.3690403997898102
4.107013702392578 0.5976844429969788 0.8428745865821838
4.881950378417969 -1.3971108198165894 0.8880670070648193
2.5167887210845947 -2.1013784408569336 0.3741428554058075
4.118879318237305 0.5840031504631042 0.8448647856712341
4.890838146209717 -1.419068694114685 0.8915400505065918
2.5203237533569336 -2.1200551986694336 0.37756797671318054
4.116283893585205 0.5682528614997864 0.8431443572044373
4.904606342315674 -1.4416439533233643 0.895881175994873
2.527644634246826 -2.1420822143554688 0.38042423129081726
4.122952461242676 0.5545143485069275 0.8448647856712341
4.908578395843506 -1.462377905845642 0.8985012769699097
2.5347349643707275 -2.1641030311584473 0.384450763463974
4.125103950500488 0.5394184589385986 0.8441386818885803
4.912680625915527 -1.4813545942306519 0.9029159545898438
2.542127847671509 -2.185802936553955 0.3879128694534302
4.141636848449707 0.5261482000350952 0.8471214771270752
4.9256815910339355 -1.5068721771240234 0.9054830074310303
2.563202142715454 -2.221881866455078 0.394286572933197
4.143594741821289 0.5117061138153076 0.846392810344696
4.9386372566223145 -1.5306527614593506 0.9107505679130554
2.5773818492889404 -2.2507712841033936 0.3989447355270386
4.150454044342041 0.4971159100532532 0.8466567397117615
4.951904773712158 -1.5537314414978027 0.9151259064674377
2.576467514038086 -2.2666709423065186 0.40130066871643066
4.147380352020264 0.48133549094200134 0.8456641435623169
4.960652828216553 -1.5745646953582764 0.9186390042304993
2.583649158477783 -2.2882323265075684 0.40543079376220703
4.15892219543457 0.4679679572582245 0.8469188809394836
4.968199729919434 -1.5989413261413574 0.9221571683883667
2.585449457168579 -2.308412551879883 0.40839076042175293
4.150718688964844 0.4516453444957733 0.8456641435623169
4.976197242736816 -1.6216667890548706 0.9256806373596191
2.599015951156616 -2.3377013206481934 0.4131215214729309
4.171840667724609 0.43847814202308655 0.8496344089508057
4.974741458892822 -1.6413863897323608 0.9274656772613525
4.183318614959717 0.42418837547302246 0.8508856892585754
4.987062454223633 -1.6657447814941406 0.9327877759933472
2.6255462169647217 -2.3966128826141357 0.4232657551765442
4.999114036560059 -1.6901620626449585 0.9390445351600647
2.6489903926849365 -2.436724901199341 0.431098997592926
5.0073137283325195 -1.7124340534210205 0.9407489895820618
2.6435723304748535 -2.4496893882751465 0.4329517185688019
3.545839309692383 2.028256416320801 0.786637008190155
5.005500316619873 -1.73233163356781 0.9425485134124756
2.6598663330078125 -2.482970714569092 0.4383963644504547
3.578873872756958 2.0297799110412598 0.7923098802566528
5.022034645080566 -1.7586915493011475 0.9487858414649963
2.679508924484253 -2.519749164581299 0.44510698318481445
3.5818989276885986 2.015002965927124 0.7899299263954163
5.034579277038574 -1.7818491458892822 0.9532286524772644
2.6854441165924072 -2.542163133621216 0.44880053400993347
3.585332155227661 1.999670386314392 0.7868367433547974
5.041445255279541 -1.806091547012329 0.9567991495132446
2.6894097328186035 -2.5664660930633545 0.4531567394733429
3.5885794162750244 1.9842723608016968 0.7844641208648682
5.048359394073486 -1.829473853111267 0.9613116979598999
2.690547466278076 -2.5864596366882324 0.45692601799964905
3.5872151851654053 1.966385006904602 0.7825852036476135
5.055324554443359 -1.8529881238937378 0.9648947715759277
2.709397315979004 -2.6237552165985107 0.4637617766857147
3.603388547897339 1.9581093788146973 0.7823169231414795
5.062185287475586 -1.8765777349472046 0.968483030796051
2.721017599105835 -2.6544029712677 0.46808651089668274
3.59348464012146 1.9357012510299683 0.7771446108818054
5.068780422210693 -1.9001827239990234 0.9730212688446045
2.7323904037475586 -2.685112476348877 0.473090261220932
3.608884334564209 1.9277743101119995 0.7790150046348572
5.084630489349365 -1.927409052848816 0.9783932566642761
2.739453077316284 -2.712808132171631 0.4788459837436676
3.61616587638855 1.9146612882614136 0.7775867581367493
5.09609317779541 -1.9521260261535645 0.9828873872756958
2.7609875202178955 -2.754249334335327 0.48575377464294434
3.619168996810913 1.899300456047058 0.774513304233551
5.116113662719727 -1.9813284873962402 0.9901201725006104
2.764692783355713 -2.7782366275787354 0.49027809500694275
3.616971731185913 1.8828762769699097 0.7712281942367554
5.122401714324951 -2.005384922027588 0.9937442541122437
2.7717432975769043 -2.8058149814605713 0.4954462945461273
3.6238486766815186 1.869606852531433 0.7712281942367554
5.132994174957275 -2.031259775161743 0.9992267489433289
2.778747320175171 -2.8336033821105957 0.49925497174263
3.631240129470825 1.8558008670806885 0.7698047161102295
5.134488582611084 -2.0536489486694336 1.001973032951355
2.799302101135254 -2.8755714893341064 0.5069729685783386
3.637613534927368 1.8438704013824463 0.7683812379837036
5.145735263824463 -2.077967405319214 1.006507396697998
2.8102548122406006 -2.906041383743286 0.5128496885299683
3.6356852054595947 1.8261744976043701 0.7658195495605469
5.160165309906006 -2.10687518119812 1.0129145383834839
2.8219025135040283 -2.942652702331543 0.5193893313407898
3.642712116241455 1.813015103340149 0.7636891603469849
5.166795253753662 -2.1295993328094482 1.015596628189087
2.8393704891204834 -2.980591058731079 0.5258811712265015
3.653859853744507 1.8018842935562134 0.7639004588127136
5.167121887207031 -2.1540403366088867 1.0183616876602173
2.8510372638702393 -3.016996145248413 0.5324898362159729
3.6562633514404297 1.7864395380020142 0.7615585327148438
5.173224449157715 -2.176748514175415 1.023005485534668
2.871436834335327 -3.0588390827178955 0.5396801233291626
3.658292055130005 1.771639347076416 0.7592200040817261
5.187295913696289 -2.2061517238616943 1.0284721851348877
2.889421224594116 -3.102864980697632 0.5469014048576355
5.214997291564941 -2.24053955078125 1.0376331806182861
2.901395559310913 -3.138711929321289 0.553617000579834
3.6805379390716553 1.7492226362228394 0.7582113146781921
5.215607643127441 -2.2634825706481934 1.0404237508773804
2.9164938926696777 -3.1783368587493896 0.5610136985778809
3.6782681941986084 1.7316458225250244 0.7549630403518677
5.220456600189209 -2.288360834121704 1.0451135635375977
2.9414191246032715 -3.2291791439056396 0.5696316957473755
3.675679922103882 1.713997721672058 0.7531372904777527
5.230662822723389 -2.3135433197021484 1.0497188568115234
3.6868772506713867 1.7027956247329712 0.7512151598930359
5.240517616271973 -2.3398075103759766 1.0533292293548584
3.6883277893066406 1.6878697872161865 0.750305712223053
5.266604900360107 -2.376856803894043 1.0625669956207275
2.9381794929504395 -3.2977404594421387 0.5822650790214539
3.7120540142059326 1.683862328529358 0.7525207996368408
5.280062198638916 -2.4062628746032715 1.0681012868881226
2.925870418548584 -3.308258295059204 0.5845775604248047
5.257467746734619 -2.4192769527435303 1.0674060583114624
2.91032075881958 -3.3150815963745117 0.5854613780975342
5.222319602966309 -2.4241201877593994 1.0639744997024536
2.8973686695098877 -3.326000452041626 0.5877710580825806
5.196273326873779 -2.433006525039673 1.0613415241241455
2.884176015853882 -3.3307583332061768 0.5878795981407166
3.71419358253479 1.6211475133895874 0.7423242330551147
5.15578031539917 -2.4382271766662598 1.0549752712249756
2.864056348800659 -3.3344786167144775 0.5896259546279907
3.733773708343506 1.6134276390075684 0.7443169951438904
5.1384596824646 -2.4509193897247314 1.0551437139511108
2.8496997356414795 -3.340109348297119 0.589727520942688
3.739502429962158 1.6004356145858765 0.7436071038246155
5.111558437347412 -2.461125612258911 1.052489161491394
2.8371715545654297 -3.3502166271209717 0.5927925109863281
3.740934133529663 1.5848510265350342 0.7419989109039307
5.092897891998291 -2.4762744903564453 1.0526418685913086
2.8203134536743164 -3.3575470447540283 0.5944194793701172
3.7378833293914795 1.5674245357513428 0.7387874722480774
5.062260150909424 -2.4821672439575195 1.0500411987304688
3.762014865875244 1.561355471611023 0.7409520149230957
5.025827407836914 -2.4893782138824463 1.0445483922958374
2.7637746334075928 -3.3396425247192383 0.5907294154167175
3.740647792816162 1.5364398956298828 0.7341713309288025
5.004026412963867 -2.499279022216797 1.0437545776367188
3.7735698223114014 1.5345898866653442 0.7381082773208618
4.985013961791992 -2.514836549758911 1.042894721031189
3.765714406967163 1.5153346061706543 0.7340171337127686
4.962740421295166 -2.5253703594207764 1.0420843362808228
3.097076654434204 -3.8273019790649414 0.6788030862808228
3.7667908668518066 1.499749779701233 0.7324197888374329
4.940335273742676 -2.5368077754974365 1.0393251180648804
3.0859808921813965 -3.842304229736328 0.6812062859535217
3.7862346172332764 1.491437315940857 0.7336658835411072
4.917591094970703 -2.5479483604431152 1.038499116897583
3.0802414417266846 -3.8654651641845703 0.6858482360839844
3.791398048400879 1.4789667129516602 0.7322453856468201
4.895726203918457 -2.55724835395813 1.0376628637313843
3.085698127746582 -3.898770570755005 0.6917072534561157
3.788120985031128 1.4601953029632568 0.730474591255188
4.880754470825195 -2.574418783187866 1.0386658906936646
3.0392229557037354 -3.871887683868408 0.6873950958251953
3.7838659286499023 1.444161295890808 0.727996826171875
4.850788593292236 -2.5781242847442627 1.035000205039978
3.0352773666381836 -3.8933751583099365 0.6920546889305115
3.7937257289886475 1.4327728748321533 0.7274658679962158
4.450427055358887 -0.3026193082332611 0.8970053791999817
4.823826313018799 -2.586513042449951 1.0322524309158325
3.0056161880493164 -3.8846075534820557 0.6911557912826538
3.7950730323791504 1.4159005880355835 0.7251691222190857
4.459122657775879 -0.31885161995887756 0.8989768624305725
4.787164688110352 -2.5916507244110107 1.0285930633544922
3.0079345703125 -3.9200165271759033 0.6970610022544861
3.8046021461486816 1.405100703239441 0.72463458776474
4.4628119468688965 -0.33556050062179565 0.8999626040458679
4.764383316040039 -2.601942777633667 1.027703046798706
2.948335647583008 -3.871645450592041 0.6891323328018188
3.819092035293579 1.3945666551589966 0.7256838083267212
4.481098651885986 -0.35345709323883057 0.90390545129776
4.752037525177002 -2.6146154403686523 1.0258264541625977
2.965196132659912 -3.920691967010498 0.6978586912155151
3.824416399002075 1.3806458711624146 0.7242646217346191
4.474952697753906 -0.36869436502456665 0.9029197096824646
4.716024875640869 -2.6173641681671143 1.0240168571472168
2.9387009143829346 -3.915405035018921 0.6976109743118286
3.834324598312378 1.3683586120605469 0.7237203121185303
4.483180999755859 -0.3859206438064575 0.9056764841079712
4.702113628387451 -2.632232189178467 1.023084282875061
2.9536783695220947 -3.9655516147613525 0.7072538733482361
3.834555149078369 1.3533698320388794 0.722135603427887
4.49181604385376 -0.4032546579837799 0.9060754776000977
4.678369045257568 -2.6436610221862793 1.0221623182296753
2.905170440673828 -3.933286666870117 0.7020267248153687
3.8257811069488525 1.3345245122909546 0.7180984020233154
4.500143051147461 -0.41984230279922485 0.9080452919006348
2.9095287322998047 -3.966644525527954 0.7080072164535522
3.844848394393921 1.325388789176941 0.7192965149879456
4.513211250305176 -0.4377530813217163 0.9109998345375061
4.66847562789917 -2.680157423019409 1.0259101390838623
2.883175849914551 -3.9610774517059326 0.7068683505058289
2.289008617401123 2.1517789363861084 0.38407158851623535
3.8404767513275146 1.3081530332565308 0.716846764087677
4.501663684844971 -0.45329371094703674 0.9098197221755981
4.692312717437744 -2.716757297515869 1.0352911949157715
2.8589658737182617 -3.9596822261810303 0.7081360816955566
2.2607388496398926 2.1096489429473877 0.3763850927352905
3.840815782546997 1.2925772666931152 0.7145622372627258
4.5146803855896 -0.47052907943725586 0.9127769470214844
2.8529348373413086 -3.981999635696411 0.7119984030723572
2.249981641769409 2.084965229034424 0.3722935914993286
3.8596646785736084 1.283191442489624 0.7164571285247803
4.527546405792236 -0.4886510372161865 0.9157341122627258
2.8408985137939453 -3.9960556030273438 0.7161407470703125
2.2468390464782715 2.066798210144043 0.3683551549911499
3.8601367473602295 1.267655372619629 0.712753415107727
4.530914783477783 -0.5058214068412781 0.9151284694671631
2.2930800914764404 -1.360990047454834 0.5106019973754883
2.8146820068359375 -3.9900660514831543 0.7149546146392822
2.2581121921539307 2.0619397163391113 0.36842039227485657
3.8645381927490234 1.2541733980178833 0.712753415107727
4.5189056396484375 -0.5204575657844543 0.9155423045158386
2.2877697944641113 -1.3692021369934082 0.5124634504318237
2.7969870567321777 -3.9959957599639893 0.7167842388153076
2.251178026199341 2.040527820587158 0.3633767366409302
3.8832974433898926 1.244547963142395 0.7146335244178772
4.541623115539551 -0.5399479866027832 0.9188787341117859
2.2701244354248047 -1.369966983795166 0.5096322298049927
2.7679996490478516 -3.985597610473633 0.7156903147697449
2.269047975540161 2.043060064315796 0.36462512612342834
3.887521982192993 1.231701135635376 0.7139217853546143
4.534748077392578 -0.5559936761856079 0.9178938269615173
2.2566988468170166 -1.3731735944747925 0.5077446699142456
2.750424861907959 -3.9914374351501465 0.7166528701782227
2.2511942386627197 2.0113863945007324 0.35784056782722473
3.8924849033355713 1.2175928354263306 0.7110746502876282
4.552392959594727 -0.5742937326431274 0.9210324287414551
2.2391843795776367 -1.3732492923736572 0.5058302879333496
2.7691333293914795 -4.05027961730957 0.7271409034729004
2.243738889694214 1.9899845123291016 0.35496291518211365
3.8923332691192627 1.2019013166427612 0.7095048427581787
4.555119037628174 -0.5916066765785217 0.9220165014266968
2.242412567138672 -1.3865647315979004 0.5081814527511597
2.7430217266082764 -4.043820381164551 0.7259146571159363
2.254883289337158 1.985150933265686 0.35397765040397644
3.9014246463775635 1.189063310623169 0.7103627920150757
4.562318325042725 -0.6095536947250366 0.925591230392456
2.2536771297454834 -1.404974341392517 0.5138208866119385
2.705810070037842 -4.020603656768799 0.723420262336731
2.254758596420288 1.9704190492630005 0.3517622649669647
3.9009530544281006 1.1740535497665405 0.7087938189506531
4.570035934448242 -0.6268296837806702 0.9267576336860657
2.252668857574463 -1.415837287902832 0.5147706866264343
2.69077467918396 -4.030073165893555 0.7268034219741821
2.242713689804077 1.9468140602111816 0.3467722535133362
3.915148973464966 1.162693738937378 0.7076569199562073
4.5873494148254395 -0.6447099447250366 0.9306970834732056
2.263897657394409 -1.4344969987869263 0.5195053219795227
2.6976888179779053 -4.072673797607422 0.7344418168067932
2.246208667755127 1.9354571104049683 0.34463992714881897
3.9147744178771973 1.1469855308532715 0.7060912847518921
4.585277080535889 -0.6615654826164246 0.929080069065094
2.2670741081237793 -1.4476252794265747 0.5218777656555176
2.652735710144043 -4.036868572235107 0.7279510498046875
2.2423899173736572 1.9172134399414062 0.3418782651424408
3.9191882610321045 1.1326977014541626 0.7046672701835632
4.58695125579834 -0.6806144714355469 0.9324913620948792
2.261599540710449 -1.4558260440826416 0.5228166580200195
2.6511423587799072 -4.0668439865112305 0.7350658178329468
3.923431873321533 1.1183593273162842 0.7039552330970764
4.59480619430542 -0.6965397000312805 0.9328405261039734
2.2727174758911133 -1.47479248046875 0.5266328454017639
2.6307802200317383 -4.068123817443848 0.7344143390655518
3.93710994720459 1.106671690940857 0.7049419283866882
4.616030216217041 -0.7187246084213257 0.9385760426521301
2.6048989295959473 -4.060664176940918 0.7347849607467651
3.9366278648376465 1.0909836292266846 0.7026666402816772
4.6133646965026855 -0.7356383204460144 0.9385760426521301
2.2863054275512695 -1.5069682598114014 0.5347468852996826
2.5925140380859375 -4.074137210845947 0.7372234463691711
3.9409546852111816 1.0766446590423584 0.7005276679992676
4.635122299194336 -0.7557080388069153 0.9426806569099426
2.2930288314819336 -1.5234848260879517 0.5376218557357788
2.585340738296509 -4.095932960510254 0.741178035736084
3.9541373252868652 1.066167950630188 0.7015029191970825
4.637426853179932 -0.7718794345855713 0.9436647295951843
2.303582191467285 -1.5426961183547974 0.5424230098724365
2.5411887168884277 -4.058866024017334 0.7362020015716553
3.9584386348724365 1.0510399341583252 0.7000733613967896
4.638960361480713 -0.791285514831543 0.9454700350761414
2.306239604949951 -1.5561639070510864 0.5448286533355713
2.5625882148742676 -4.126596450805664 0.7493820786476135
3.9576141834259033 1.0353081226348877 0.6985169649124146
4.655813694000244 -0.8108949065208435 0.9477599263191223
2.3167498111724854 -1.5756438970565796 0.5486721992492676
2.5136210918426514 -4.081043243408203 0.7411447763442993
3.966508626937866 1.022116780281067 0.697213888168335
4.652647495269775 -0.827924907207489 0.9485846757888794
2.3147687911987305 -1.5867359638214111 0.5511026382446289
2.5062386989593506 -4.102656841278076 0.7451151013374329
3.9752418994903564 1.008844256401062 0.6966213583946228
4.664377689361572 -0.8476611375808716 0.9498819708824158
2.3250837326049805 -1.6063647270202637 0.5549564957618713
2.4909822940826416 -4.111480712890625 0.7476322650909424
3.9786834716796875 0.995685875415802 0.6959055662155151
4.67568826675415 -0.8665875792503357 0.9536588788032532
2.331303119659424 -1.6227126121520996 0.5593342781066895
2.4859395027160645 -4.137298107147217 0.7523906826972961
3.982424259185791 0.9811257123947144 0.6951897144317627
4.681950092315674 -0.8855100870132446 0.95645672082901
2.337388277053833 -1.6396985054016113 0.5622323155403137
2.4621822834014893 -4.133629322052002 0.7534395456314087
3.98634672164917 0.966608464717865 0.6930420398712158
4.679315567016602 -0.9010940790176392 0.954793393611908
2.3392937183380127 -1.65386164188385 0.5646644234657288
2.4392776489257812 -4.129526615142822 0.7536302804946899
3.985301971435547 0.950903058052063 0.6907789707183838
4.6855998039245605 -0.9192781448364258 0.9575914740562439
2.3490355014801025 -1.673695683479309 0.5695388317108154
2.42399263381958 -4.138212203979492 0.7553044557571411
3.9887142181396484 0.937013566493988 0.6900638341903687
4.691649913787842 -0.9400390386581421 0.958722710609436
2.3510680198669434 -1.6875478029251099 0.5719811916351318
2.3912460803985596 -4.1168317794799805 0.7523522973060608
4.002081871032715 0.9246891736984253 0.6895740628242493
4.70291805267334 -0.9585291743278503 0.9616695642471313
2.3606014251708984 -1.707534909248352 0.5768760442733765
2.4105165004730225 -4.185252666473389 0.7649645209312439
4.0106048583984375 0.9111871123313904 0.6882485151290894
4.708967208862305 -0.9786092042922974 0.9627947211265564
2.362335681915283 -1.7220133543014526 0.5783081650733948
2.372921943664551 -4.155118465423584 0.7604304552078247
4.014035224914551 0.8965075612068176 0.6875306963920593
4.720251560211182 -0.9972946643829346 0.964897096157074
2.371656656265259 -1.7421549558639526 0.583216667175293
2.3477487564086914 -4.146254062652588 0.7597863078117371
4.008009910583496 0.8797516226768494 0.6837334036827087
4.726480484008789 -1.016721487045288 0.965170681476593
2.3773062229156494 -1.7591140270233154 0.5866488814353943
2.352538824081421 -4.188748359680176 0.7669236063957214
4.02096700668335 0.8671603202819824 0.6846591830253601
4.72255802154541 -1.0340021848678589 0.9660144448280334
2.3786237239837646 -1.7736175060272217 0.5891125202178955
2.353787899017334 -4.2271857261657715 0.774974524974823
4.024468421936035 0.8524910807609558 0.6825053095817566
4.743014812469482 -1.0558443069458008 0.9700650572776794
2.30713152885437 -4.179361343383789 0.7663607001304626
4.022792816162109 0.8382071852684021 0.679535448551178
4.744390964508057 -1.0744165182113647 0.9684970378875732
2.393245220184326 -1.8113107681274414 0.5959287285804749
4.031020164489746 0.8245172500610352 0.6781969666481018
4.750308036804199 -1.0940754413604736 0.9687480926513672
2.402188777923584 -1.8319660425186157 0.5998237133026123
4.029755592346191 0.8088822960853577 0.6737972497940063
4.770500659942627 -1.1162759065628052 0.9727659821510315
2.4191150665283203 -1.8582655191421509 0.6056661009788513
4.036225318908691 0.8094481825828552 0.6652676463127136
4.763245582580566 -1.1145782470703125 0.9588682055473328
2.4125747680664062 -1.8525722026824951 0.5978798866271973
4.038552284240723 0.8245893120765686 0.6639071702957153
4.758194446563721 -1.0958918333053589 0.9535361528396606
2.40423321723938 -1.8321980237960815 0.5908575057983398
2.3914356231689453 -4.404476642608643 0.7982788681983948
4.026175498962402 0.8374457955360413 0.6601638793945312
4.739053726196289 -1.073207974433899 0.9445044994354248
2.3956031799316406 -1.811780571937561 0.5849239826202393
2.3201208114624023 -4.236032009124756 0.7649645209312439
4.0230793952941895 0.8521968126296997 0.6601638793945312
4.733855247497559 -1.0538053512573242 0.9400572776794434
2.387012004852295 -1.7915680408477783 0.577975869178772
2.316845178604126 -4.193497180938721 0.7545265555381775
4.0204949378967285 0.8648557066917419 0.659446120262146
4.737985134124756 -1.0373799800872803 0.9375178217887878
2.381913185119629 -1.7741303443908691 0.5740873217582703
2.3444783687591553 -4.207010746002197 0.7550537586212158
4.01710319519043 0.8810126185417175 0.658728301525116
4.718076705932617 -1.0149136781692505 0.9310887455940247
2.3805174827575684 -1.7602046728134155 0.5701227188110352
2.3245513439178467 -4.133844375610352 0.7401267290115356
4.009452819824219 0.8932803273200989 0.6572206020355225
4.70782995223999 -0.9946700930595398 0.925727903842926
2.363598585128784 -1.7343311309814453 0.5618917942047119
2.3253166675567627 -4.099959850311279 0.7322105169296265
4.006309986114502 0.9072704911231995 0.6572206020355225
4.701816082000732 -0.9762669801712036 0.9230005145072937
2.354217529296875 -1.7142086029052734 0.5571104884147644
2.355302095413208 -4.117587089538574 0.733504056930542
4.0030694007873535 0.9219739437103271 0.6565036773681641
4.6912431716918945 -0.956149697303772 0.9184980988502502
2.352837324142456 -1.700042963027954 0.5532051920890808
2.386235475540161 -4.134747505187988 0.7339227199554443
3.9997751712799072 0.936665952205658 0.6557866930961609
4.695187091827393 -0.9390432238578796 0.9159911274909973
2.34731125831604 -1.6829897165298462 0.5488847494125366
2.4041173458099365 -4.130687236785889 0.731346070766449
3.9963152408599854 0.9513195157051086 0.6557866930961609
4.6844482421875 -0.9199012517929077 0.9106731414794922
2.337763547897339 -1.6632050275802612 0.5431479811668396
2.3945417404174805 -4.079766273498535 0.7196550369262695
3.9930810928344727 0.9652903079986572 0.6550696492195129
4.682965278625488 -0.9017969369888306 0.9097362756729126
2.3319575786590576 -1.646234393119812 0.5393615365028381
2.472684144973755 -4.177751541137695 0.7350658178329468
3.97981595993042 0.9775364995002747 0.6542103290557861
4.681880474090576 -0.8838041424751282 0.9063047766685486
2.3221852779388428 -1.6266156435012817 0.5336689352989197
2.4679064750671387 -4.1350274085998535 0.7265561819076538
3.9809963703155518 0.9933119416236877 0.6549984812736511
4.6656174659729 -0.8638787865638733 0.902567446231842
2.3283605575561523 -1.6182527542114258 0.532184362411499
2.4883406162261963 -4.1347527503967285 0.7255215048789978
3.967867136001587 1.0054986476898193 0.6527076363563538
4.659548759460449 -0.8451034426689148 0.8982192873954773
2.318397045135498 -1.5987579822540283 0.52652907371521
2.5173563957214355 -4.146842956542969 0.7250051498413086
3.9734973907470703 1.0224387645721436 0.6557145714759827
4.658240795135498 -0.827242910861969 0.8948105573654175
2.3124992847442627 -1.5816234350204468 0.5227944850921631
2.5058295726776123 -4.090744972229004 0.713526725769043
3.9604601860046387 1.0338373184204102 0.6534221172332764
4.646579265594482 -0.8084510564804077 0.8920229077339172
2.3016164302825928 -1.5630027055740356 0.5181546211242676
2.542954921722412 -4.120611190795898 0.7176118493080139
3.9614174365997314 1.0496107339859009 0.6542103290557861
4.635134696960449 -0.7889679670333862 0.888414740562439
2.295863151550293 -1.545665979385376 0.5139591097831726
2.546731948852539 -4.08990478515625 0.709742546081543
3.94789719581604 1.061529278755188 0.653347373008728
4.633453845977783 -0.7712181806564331 0.8858467936515808
2.284923553466797 -1.5273140668869019 0.5083889365196228
2.570992946624756 -4.098513603210449 0.710124135017395
3.9439799785614014 1.0759918689727783 0.653347373008728
4.621852874755859 -0.7518884539604187 0.8822497129440308
2.2824583053588867 -1.51359224319458 0.5056140422821045
2.586975574493408 -4.089029788970947 0.7067463397979736
3.9400901794433594 1.0897220373153687 0.6540609002113342
4.605341911315918 -0.7327106595039368 0.8769189715385437
2.2799222469329834 -1.4999085664749146 0.5028459429740906
2.5835189819335938 -4.050631046295166 0.6991723775863647
3.946073293685913 1.1054763793945312 0.6549255847930908
4.59358024597168 -0.7135868072509766 0.8733354806900024
2.26503324508667 -1.4782471656799316 0.49689972400665283
2.611992597579956 -4.0623555183410645 0.6994010806083679
2.249382257461548 1.9062654972076416 0.3125000298023224
3.922389268875122 1.1158418655395508 0.6531928181648254
4.591306209564209 -0.6960091590881348 0.8724122643470764
2.2668540477752686 -1.4670549631118774 0.4941112995147705
2.6339304447174072 -4.060550212860107 0.6974554657936096
2.2460787296295166 1.9176543951034546 0.31405797600746155
3.923016309738159 1.131578803062439 0.6539835333824158
4.589297294616699 -0.679325520992279 0.8690600991249084
2.259943962097168 -1.450858235359192 0.4904738664627075
2.6680216789245605 -4.080272197723389 0.6990441679954529
2.2574169635772705 1.9423704147338867 0.31826087832450867
3.9139950275421143 1.1445322036743164 0.6539045572280884
4.577164173126221 -0.6603949666023254 0.866298258304596
2.252943515777588 -1.4347305297851562 0.48684659600257874
2.669473171234131 -4.05000638961792 0.6938025951385498
2.247163772583008 1.9465543031692505 0.3182484805583954
3.914489984512329 1.1595247983932495 0.6561213135719299
4.569969177246094 -0.6422673463821411 0.8636515140533447
2.249516010284424 -1.4220850467681885 0.48412445187568665
2.6941075325012207 -4.058030605316162 0.6932340860366821
2.2624893188476562 1.9743906259536743 0.3214415907859802
3.901275396347046 1.169696569442749 0.653823733329773
4.562743186950684 -0.6250180602073669 0.8602045774459839
2.2466623783111572 -1.4087823629379272 0.4804835319519043
2.710005044937134 -4.048157215118408 0.688983142375946
2.2849369049072266 2.008779764175415 0.3278231620788574
3.9064090251922607 1.18685781955719 0.6554087400436401
4.565300464630127 -0.6083301305770874 0.858596920967102
2.231133460998535 -1.3876779079437256 0.47465065121650696
2.711178779602051 -4.017974853515625 0.6829443573951721
2.270073175430298 2.0105109214782715 0.32728108763694763
3.896786689758301 1.2010419368743896 0.6553280353546143
4.533229827880859 -0.5871546864509583 0.8529804944992065
2.236586093902588 -1.3791875839233398 0.47373345494270325
2.735844612121582 -4.019634246826172 0.6824913024902344
2.252134323120117 2.0079891681671143 0.3272514343261719
3.8880691528320312 1.2124876976013184 0.654534637928009
4.550178050994873 -0.5732075572013855 0.8541311621665955
2.2496824264526367 -1.3769874572753906 0.474587082862854
2.7605597972869873 -4.0271711349487305 0.6827149391174316
2.277956485748291 2.0460474491119385 0.33317241072654724
3.883704423904419 1.2260178327560425 0.6552454233169556
4.53761100769043 -0.5547370314598083 0.8513848185539246
2.2674765586853027 -1.376479983329773 0.47631746530532837
2.7586822509765625 -3.9929707050323486 0.6751724481582642
2.270355463027954 2.054304599761963 0.33424121141433716
3.8791844844818115 1.2402441501617432 0.6552454233169556
4.525410175323486 -0.5364184975624084 0.84625244140625
2.276865005493164 -1.370784044265747 0.4762735068798065
2.7933785915374756 -4.011670112609863 0.6765825152397156
2.2590081691741943 2.059145927429199 0.33529916405677795
3.8692610263824463 1.2542133331298828 0.6558710336685181
4.522461891174316 -0.5192676782608032 0.8453395962715149
2.295243978500366 -1.3693262338638306 0.4775201380252838
2.783975601196289 -3.964137554168701 0.6687222123146057
2.266322135925293 2.080343008041382 0.3390907645225525
3.860281229019165 1.2654640674591064 0.6557840704917908
4.509120941162109 -0.5033884644508362 0.8441845774650574
2.2999155521392822 -1.3617922067642212 0.4765871465206146
2.80950927734375 -3.9709508419036865 0.6680614352226257
2.255033254623413 2.085261344909668 0.33854296803474426
3.855617046356201 1.279604196548462 0.6557840704917908
4.511544704437256 -0.48533087968826294 0.8418088555335999
2.8127434253692627 -3.944776773452759 0.6628035306930542
2.247201442718506 2.093350648880005 0.3406871259212494
3.855588912963867 1.2945531606674194 0.658000648021698
4.508695602416992 -0.46831443905830383 0.8393146395683289
4.672062397003174 -2.719205141067505 0.9580461978912354
2.860642194747925 -3.978073835372925 0.6668378114700317
3.850818395614624 1.3086758852005005 0.658000648021698
4.505410194396973 -0.45208239555358887 0.8384042978286743
4.660025596618652 -2.691551685333252 0.9518051147460938
2.871117115020752 -3.9648356437683105 0.6636005640029907
3.8458871841430664 1.3227436542510986 0.6587104797363281
4.502579689025879 -0.4351353943347931 0.8351255655288696
4.6487836837768555 -2.662383556365967 0.9455811381340027
2.874218463897705 -3.938648223876953 0.6575101017951965
3.153214931488037 3.0006678104400635 0.4874742329120636
3.827277421951294 1.3305524587631226 0.6577267050743103
4.494205951690674 -0.41928839683532715 0.833310067653656
4.671643257141113 -2.6527843475341797 0.9463131427764893
2.8977136611938477 -3.9404330253601074 0.6561000943183899
3.830998182296753 1.3491075038909912 0.660746693611145
4.466110706329346 -0.39937546849250793 0.8294288516044617
4.694495677947998 -2.6430537700653076 0.9470347762107849
2.935877799987793 -3.9618237018585205 0.6596968173980713
3.826373815536499 1.3625104427337646 0.6600378751754761
4.477630138397217 -0.3838683068752289 0.8296790719032288
4.713040351867676 -2.630791664123535 0.9468821287155151
2.9394102096557617 -3.934915065765381 0.6544731855392456
3.821617603302002 1.3751134872436523 0.6614556312561035
4.4543776512146 -0.36699917912483215 0.8251404166221619
4.752645492553711 -2.6311821937561035 0.9510334730148315
2.933220624923706 -3.8967583179473877 0.6464454531669617
3.806793451309204 1.3870645761489868 0.6598482131958008
4.451056480407715 -0.3487424850463867 0.823453426361084
4.762547969818115 -2.6139047145843506 0.9491372108459473
2.965660810470581 -3.909946918487549 0.6478176712989807
3.8153586387634277 1.4060472249984741 0.663678765296936
4.447628974914551 -0.3328576683998108 0.8209896683692932
4.781041145324707 -2.6012980937957764 0.9489583373069763
2.9772350788116455 -3.8954708576202393 0.6437405943870544
3.7966933250427246 1.413486361503601 0.6619696021080017
4.433709144592285 -0.31703442335128784 0.8198258876800537
4.821183204650879 -2.600282907485962 0.9530577659606934
3.0097789764404297 -3.9082775115966797 0.6459240913391113
3.796104907989502 1.429131031036377 0.6627758741378784
4.84400749206543 -2.589719533920288 0.9537116885185242
3.0122010707855225 -3.881906747817993 0.639897346496582
3.800100326538086 1.4457999467849731 0.6658077239990234
4.342911720275879 -0.27932122349739075 0.8010759353637695
4.871173858642578 -2.5813310146331787 0.9552087783813477
3.0479931831359863 -3.898447275161743 0.641826331615448
3.780743360519409 1.4543206691741943 0.6647977232933044
4.893533229827881 -2.5713417530059814 0.9558400511741638
3.075493574142456 -3.9026458263397217 0.6409299969673157
3.7891831398010254 1.473532795906067 0.6672269701957703
4.916330814361572 -2.560370683670044 0.9564609527587891
3.0591471195220947 -3.852771520614624 0.6319577693939209
3.7835397720336914 1.4873255491256714 0.6686460375785828
4.9348835945129395 -2.5470833778381348 0.9552536606788635
3.082817554473877 -3.8534953594207764 0.6304238438606262
3.777846097946167 1.5010967254638672 0.6700651049613953
4.961734294891357 -2.5379550457000732 0.9586440920829773
3.0970585346221924 -3.842341423034668 0.6287011504173279
3.758368492126465 1.5093307495117188 0.6690393686294556
4.9888834953308105 -2.528815746307373 0.9600821733474731
3.762219190597534 1.5261492729187012 0.6706691384315491
5.011629581451416 -2.5173001289367676 0.9606623649597168
2.764371871948242 -3.3786051273345947 0.550704300403595
3.7519278526306152 1.5380128622055054 0.6705620288848877
5.025097370147705 -2.5021369457244873 0.9595469832420349
2.773703098297119 -3.3647706508636475 0.548556387424469
3.746049404144287 1.5516644716262817 0.6719774007797241
5.066347599029541 -2.497346878051758 0.9634725451469421
2.796884059906006 -3.3652760982513428 0.5481374859809875
3.749220371246338 1.5691018104553223 0.6750311255455017
5.08905553817749 -2.4853975772857666 0.9640178084373474
2.8158152103424072 -3.362903356552124 0.546318531036377
3.7432267665863037 1.5827409029006958 0.6764497756958008
5.119754791259766 -2.4793972969055176 0.9662272334098816
2.833470106124878 -3.3612804412841797 0.546019971370697
3.742215156555176 1.5977342128753662 0.677270770072937
5.128960132598877 -2.460688829421997 0.9652343988418579
2.846540689468384 -3.3505938053131104 0.5437180399894714
3.7233078479766846 1.6042801141738892 0.6748079657554626
5.16898775100708 -2.457733392715454 0.969091534614563
2.855759620666504 -3.336583137512207 0.5408048629760742
5.182726860046387 -2.44101619720459 0.967926561832428
2.8779385089874268 -3.3376553058624268 0.5395615696907043
5.227689266204834 -2.4388225078582764 0.972576916217804
2.887021064758301 -3.3234798908233643 0.5374172329902649
2.28507399559021 1.0145145654678345 0.418832004070282
5.263601779937744 -2.4321255683898926 0.976552426815033
2.9014782905578613 -3.317835569381714 0.5357154607772827
5.249533176422119 -2.4045324325561523 0.9703850150108337
2.9203665256500244 -3.31483793258667 0.5346089005470276
3.670144557952881 1.6609910726547241 0.6770320534706116
5.245146751403809 -2.3793039321899414 0.965888500213623
2.936554193496704 -3.307520866394043 0.5328937768936157
3.6638169288635254 1.6743333339691162 0.6784382462501526
5.227406024932861 -2.3470964431762695 0.9599266648292542
2.9599881172180176 -3.307080030441284 0.5315896272659302
3.6536593437194824 1.684360146522522 0.6783100366592407
5.21744441986084 -2.3218650817871094 0.9546289443969727
2.941152811050415 -3.2641890048980713 0.5247043967247009
3.6694862842559814 1.7079918384552002 0.684585690498352
5.208171367645264 -2.2949061393737793 0.9493448734283447
2.9199106693267822 -3.2168264389038086 0.5165008902549744
3.6721253395080566 1.7256231307983398 0.6862533688545227
5.203137397766113 -2.269951343536377 0.9458860158920288
2.901707172393799 -3.173322916030884 0.508936882019043
3.6833746433258057 1.7474194765090942 0.6910118460655212
5.189085960388184 -2.241218090057373 0.9398041367530823
2.8865246772766113 -3.1335792541503906 0.5027482509613037
3.676727771759033 1.7608038187026978 0.6924349069595337
5.17035436630249 -2.2106778621673584 0.9329208731651306
2.8711466789245605 -3.094050884246826 0.4958506226539612
3.6703410148620605 1.7735220193862915 0.6938578486442566
5.159721374511719 -2.1848597526550293 0.9306254386901855
2.8554556369781494 -3.0546107292175293 0.48972421884536743
3.6724584102630615 1.7911776304244995 0.6969622373580933
5.163742542266846 -2.1642775535583496 0.9258975982666016
2.826007604598999 -3.0009844303131104 0.4798671007156372
3.6744935512542725 1.8088717460632324 0.7000733613967896
5.148858070373535 -2.1358859539031982 0.9218187928199768
2.8303236961364746 -2.983581781387329 0.47655755281448364
3.6544888019561768 1.8156942129135132 0.6982582211494446
5.144143104553223 -2.109766721725464 0.9164603352546692
2.8120670318603516 -2.9395768642425537 0.46924763917922974
3.6519968509674072 1.8311761617660522 0.7005276679992676
5.137694358825684 -2.0872459411621094 0.9120851159095764
2.801295518875122 -2.9089438915252686 0.4636954963207245
3.6406452655792236 1.84221351146698 0.7011069059371948
5.126852035522461 -2.060981273651123 0.9098036885261536
2.787838935852051 -2.873814105987549 0.4583054184913635
3.634298086166382 1.8541648387908936 0.702531099319458
5.115973472595215 -2.035892963409424 0.9046325087547302
2.784576892852783 -2.8494794368743896 0.4546402394771576
3.618932008743286 1.8622742891311646 0.7015445828437805
5.109774589538574 -2.011763572692871 0.9012422561645508
2.756830930709839 -2.800478935241699 0.4463469982147217
3.620609760284424 1.8799538612365723 0.7046672701835632
5.089819431304932 -1.982391119003296 0.894477128982544
2.749748706817627 -2.7728819847106934 0.4414809048175812
3.6134769916534424 1.893097162246704 0.7060912847518921
5.087987422943115 -1.9602309465408325 0.8919094800949097
2.7424988746643066 -2.7453722953796387 0.43664076924324036
3.615007162094116 1.9108177423477173 0.709224283695221
5.076694011688232 -1.93454110622406 0.8886808753013611
2.731503486633301 -2.7143945693969727 0.4319421052932739
3.598287582397461 1.9204996824264526 0.7096509337425232
5.065380573272705 -1.9100077152252197 0.8826177716255188
2.713294267654419 -2.676605701446533 0.42548778653144836
3.6003568172454834 1.936971664428711 0.7127922177314758
5.053851127624512 -1.8845324516296387 0.8793994784355164
2.6983392238616943 -2.642409086227417 0.4202863276004791
3.6063425540924072 1.9564546346664429 0.7168008089065552
5.051608562469482 -1.8626351356506348 0.8768506646156311
2.6979305744171143 -2.621791124343872 0.41665756702423096
3.594717025756836 1.96723473072052 0.716655433177948
5.044778823852539 -1.8391413688659668 0.8725653290748596
2.6790640354156494 -2.584432601928711 0.41030529141426086
3.5915751457214355 1.9826561212539673 0.7189489603042603
5.02841329574585 -1.8123232126235962 0.867622435092926
2.6814422607421875 -2.567819595336914 0.4079137444496155
3.5839548110961914 1.995622992515564 0.7210968732833862
5.020904541015625 -1.7898387908935547 0.8642888069152832
2.6693758964538574 -2.537574052810669 0.4027089476585388
3.580690383911133 2.011033535003662 0.7233961820602417
5.013749122619629 -1.7666034698486328 0.8600323796272278
2.653404712677002 -2.503941774368286 0.398267924785614
3.538801670074463 2.0046043395996094 0.7178769111633301
5.00634765625 -1.7433948516845703 0.8567115068435669
2.6409499645233154 -2.473952293395996 0.39311763644218445
4.989508152008057 -1.717051386833191 0.8518021106719971
2.6283578872680664 -2.4441311359405518 0.38737204670906067
4.991094589233398 -1.6971633434295654 0.8510053157806396
2.626389503479004 -2.4244112968444824 0.3851386606693268
4.978984832763672 -1.6727118492126465 0.8450679779052734
2.6134138107299805 -2.3947525024414062 0.38006874918937683
4.965914249420166 -1.6490525007247925 0.8428043127059937
2.600665807723999 -2.364764928817749 0.375029981136322
4.126777648925781 0.43592655658721924 0.7668612003326416
4.972204208374023 -1.6309319734573364 0.8409777879714966
2.5983405113220215 -2.345310688018799 0.3722168505191803
4.169005393981934 0.45584404468536377 0.7757706046104431
4.954527854919434 -1.6050448417663574 0.8379199504852295
2.5847489833831787 -2.3159072399139404 0.36843883991241455
4.157536506652832 0.4700165390968323 0.7739517092704773
4.956092357635498 -1.5855040550231934 0.8344011902809143
2.574786424636841 -2.2900235652923584 0.36399540305137634
4.150852680206299 0.4839411973953247 0.7737715840339661
4.9427666664123535 -1.5622429847717285 0.8312345743179321
2.568394184112549 -2.2675325870513916 0.36010056734085083
4.139154434204102 0.49796101450920105 0.772678554058075
4.925033092498779 -1.536806344985962 0.8263758420944214
2.5693023204803467 -2.251631498336792 0.35786277055740356
4.142180442810059 0.5137335062026978 0.7735897898674011
4.9213337898254395 -1.5158804655075073 0.8238955140113831
2.555166244506836 -2.22273850440979 0.3529641330242157
4.125690460205078 0.5255858302116394 0.7715821266174316
4.912822723388672 -1.4935662746429443 0.8206295967102051
2.5445218086242676 -2.1971473693847656 0.34978586435317993
4.128571510314941 0.5406047701835632 0.7732210159301758
4.9086689949035645 -1.4726712703704834 0.8199459314346313
2.533815860748291 -2.1717429161071777 0.3454514145851135
4.121362686157227 0.5564976334571838 0.7730339169502258
4.909573078155518 -1.4533497095108032 0.817368745803833
2.5228638648986816 -2.1463661193847656 0.34229913353919983
4.119027614593506 0.5715622901916504 0.7744855284690857
4.886316299438477 -1.4279332160949707 0.8117510080337524
2.5156500339508057 -2.1243844032287598 0.33851930499076843
4.112274646759033 0.5852633118629456 0.7728450894355774
4.877419948577881 -1.4059507846832275 0.8085030913352966
2.504861354827881 -2.0988497734069824 0.3342514634132385
4.105045795440674 0.5981297492980957 0.7741026878356934
4.8681559562683105 -1.3839753866195679 0.8070269823074341
2.5011088848114014 -2.0801503658294678 0.3321574330329895
4.102959632873535 0.6131914258003235 0.7733786702156067
4.8638224601745605 -1.3634957075119019 0.8045706748962402
2.485833168029785 -2.052079200744629 0.3274224102497101
4.095668792724609 0.6267253756523132 0.7739086747169495
4.849884510040283 -1.340435266494751 0.8005465865135193
2.478034496307373 -2.0304152965545654 0.32428303360939026
4.102697372436523 0.644666314125061 0.7764695882797241
4.844871520996094 -1.3208636045455933 0.7998518347740173
2.4739248752593994 -2.0119385719299316 0.32221582531929016
4.090697288513184 0.6566882133483887 0.7753548622131348
4.830873966217041 -1.298044204711914 0.7949598431587219
2.462057590484619 -1.987339735031128 0.31804579496383667
4.078431129455566 0.6700616478919983 0.774236798286438
4.830959320068359 -1.2791008949279785 0.7933028936386108
2.4538376331329346 -1.9658945798873901 0.3154967427253723
4.075933456420898 0.684271514415741 0.7749581336975098
4.821413993835449 -1.2576816082000732 0.7900815606117249
2.4532814025878906 -1.9507291316986084 0.313951313495636
4.068155288696289 0.6983059048652649 0.7761980295181274
4.816075801849365 -1.2383501529693604 0.7893834114074707
2.4527323246002197 -1.9356614351272583 0.31131866574287415
4.075114727020264 0.714886486530304 0.7787682414054871
4.811141014099121 -1.218299388885498 0.7869494557380676
2.424642324447632 -1.899113416671753 0.3057820796966553
4.062787055969238 0.7273510694503784 0.7776387929916382
4.7962751388549805 -1.1958457231521606 0.7846800684928894
2.419843912124634 -1.8810853958129883 0.3037651479244232
4.060093402862549 0.7422370910644531 0.7776387929916382
4.796227931976318 -1.1771790981292725 0.7813104391098022
2.418926477432251 -1.8661893606185913 0.3017124533653259
4.056945323944092 0.7570382952690125 0.77979975938797
4.780709743499756 -1.1556923389434814 0.7807605862617493
2.4139811992645264 -1.8482998609542847 0.29917705059051514
4.049317836761475 0.7702515125274658 0.7795908451080322
4.7802414894104 -1.137050986289978 0.779119074344635
2.4009711742401123 -1.8244184255599976 0.29620251059532166
4.046065807342529 0.7850098609924316 0.7817489504814148
4.760202884674072 -1.1138663291931152 0.7760571837425232
2.395763397216797 -1.8066487312316895 0.2942124307155609
4.023752689361572 0.7959946990013123 0.7787377834320068
4.74513578414917 -1.0920121669769287 0.7720717787742615
2.3908517360687256 -1.7885856628417969 0.2911853492259979
4.035262107849121 0.8129187226295471 0.782254159450531
4.744289398193359 -1.0735231637954712 0.7712886929512024
2.377453327178955 -1.7650089263916016 0.28824201226234436
1.7948355674743652 3.189223289489746 0.5783122777938843
4.031854152679443 0.8276207447052002 0.7844094038009644
4.733415603637695 -1.053707480430603 0.76978600025177
2.3599071502685547 -1.7386022806167603 0.28482380509376526
1.7834948301315308 3.195115566253662 0.5808670520782471
4.033466339111328 0.8433697819709778 0.7860645651817322
4.737114906311035 -1.0363229513168335 0.770632266998291
2.3542511463165283 -1.7211591005325317 0.2828640639781952
1.76435387134552 3.1882259845733643 0.5816953778266907
4.015684604644775 0.8542926907539368 0.7854036092758179
4.726266860961914 -1.0158125162124634 0.7691218256950378
2.360583543777466 -1.712547779083252 0.28235507011413574
1.7471065521240234 3.18587327003479 0.5832900404930115
4.021722793579102 0.8709968328475952 0.7894373536109924
4.7248215675354 -0.9982601404190063 0.7691790461540222
2.350393295288086 -1.6926639080047607 0.2804277539253235
1.7352232933044434 3.191896915435791 0.5858265161514282
4.003714084625244 0.8824715614318848 0.7887579202651978
4.713813304901123 -0.9778999090194702 0.7676597833633423
2.3444738388061523 -1.67538583278656 0.27847930788993835
1.73969304561615 3.2001190185546875 0.5905972719192505
4.0074286460876465 0.8832902908325195 0.7954330444335938
4.707545280456543 -0.9791708588600159 0.7727475166320801
2.347698211669922 -1.6789281368255615 0.2819829285144806
1.7515093088150024 3.193901777267456 0.5893258452415466
4.01050329208374 0.8685670495033264 0.7961492538452148
4.7276740074157715 -1.0014489889144897 0.7792448401451111
2.353182792663574 -1.6965446472167969 0.2854668200016022
1.7776892185211182 3.21364688873291 0.5921941995620728
4.023125648498535 0.8558756709098816 0.7987717986106873
4.733222007751465 -1.020764946937561 0.7833721041679382
2.3669137954711914 -1.7196635007858276 0.28995761275291443
1.7775299549102783 3.1857357025146484 0.5869410634040833
4.021021366119385 0.8400351405143738 0.7999695539474487
4.733734130859375 -1.0390468835830688 0.7875543236732483
2.368459939956665 -1.7340855598449707 0.2929932773113251
1.7892946004867554 3.179377794265747 0.5856675505638123
4.033681392669678 0.8279958367347717 0.8011623620986938
4.744209289550781 -1.059587001800537 0.7908086776733398
2.38167405128479 -1.7578473091125488 0.29702621698379517
1.8049007654190063 3.182370901107788 0.5846985578536987
4.041362762451172 0.8141477108001709 0.8028368353843689
4.750160217285156 -1.0774662494659424 0.7932645678520203
2.3877274990081787 -1.7745763063430786 0.2995623052120209
1.8092989921569824 3.163053274154663 0.5810593962669373
4.03936767578125 0.7983511686325073 0.8025997281074524
4.755007266998291 -1.09865403175354 0.7974273562431335
2.4003195762634277 -1.7989375591278076 0.3041611909866333
4.047222137451172 0.7845013737678528 0.8028368353843689
4.775026798248291 -1.1208516359329224 0.8023149371147156
2.401521682739258 -1.8136223554611206 0.3067457973957062
4.054619789123535 0.7712600827217102 0.8045129776000977
4.785012245178223 -1.1417158842086792 0.8064535856246948
2.4106059074401855 -1.8343957662582397 0.30983126163482666
4.057557106018066 0.7564196586608887 0.8037925958633423
4.7950439453125 -1.16270112991333 0.8097414970397949
2.4310410022735596 -1.864729404449463 0.3149968087673187
4.065268516540527 0.7424498796463013 0.8040271401405334
4.800193786621094 -1.182594656944275 0.8122237920761108
2.4240593910217285 -1.8735259771347046 0.3166010081768036
4.0628662109375 0.727365255355835 0.8037925958633423
4.805262088775635 -1.202541470527649 0.8147095441818237
2.440631866455078 -1.9006643295288086 0.32076460123062134
4.065642833709717 0.7124934196472168 0.8030722141265869
4.814751625061035 -1.2236857414245605 0.8197451829910278
2.44525408744812 -1.9187028408050537 0.32393917441368103
4.068089008331299 0.697563648223877 0.8037925958633423
4.814872741699219 -1.2425214052200317 0.8214271068572998
2.4536755084991455 -1.9398831129074097 0.32765018939971924
4.075339317321777 0.684171736240387 0.8047483563423157
4.829235076904297 -1.2651245594024658 0.825558066368103
2.458127737045288 -1.958086371421814 0.3303099274635315
4.077958106994629 0.6692529916763306 0.8040271401405334
4.843719959259033 -1.2870038747787476 0.8296958804130554
