# .PCD v0.7 - Point Cloud Data file format
VERSION 0.7
FIELDS x y z
SIZE 4 4 4
TYPE F F F
COUNT 1 1 1
WIDTH 818
HEIGHT 1
VIEWPOINT 0 0 0 1 0 0 0
POINTS 818
DATA ascii
2.5252270698547363 2.1476171016693115 -0.013885797932744026
3.5059797763824463 -0.5089676380157471 0.12681037187576294
3.549818277359009 -2.234574556350708 0.2132224440574646
1.6521111726760864 -2.4688262939453125 0.16140294075012207
2.5283594131469727 2.1670663356781006 -0.01104267779737711
3.541135787963867 -2.211028814315796 0.2100212275981903
1.6500588655471802 -2.44631290435791 0.15774288773536682
0.7674917578697205 0.22530300915241241 0.013961924239993095
3.53660249710083 -2.1902236938476562 0.2063634991645813
1.6394399404525757 -2.411457061767578 0.15332992374897003
0.7665764689445496 0.22838068008422852 0.014241133816540241
3.536975383758545 -2.1708593368530273 0.20297077298164368
1.6379157304763794 -2.3885369300842285 0.1487414687871933
0.7658149003982544 0.23092147707939148 0.014241133816540241
3.531479597091675 -2.1513965129852295 0.19935117661952972
1.6378010511398315 -2.3705852031707764 0.14545774459838867
0.7601775527000427 0.23226453363895416 0.014429589733481407
3.5351552963256836 -2.1359095573425293 0.19694781303405762
1.6265610456466675 -2.3359620571136475 0.14170591533184052
0.7497650980949402 0.23209108412265778 0.01452205516397953
0.8183616399765015 -0.10048217326402664 0.028504278510808945
3.525911331176758 -2.112722635269165 0.1938430368900299
1.620866060256958 -2.309684991836548 0.1370156705379486
0.7488636374473572 0.23496674001216888 0.014796024188399315
0.8286433219909668 -0.09866306185722351 0.02899543195962906
3.5290584564208984 -2.0979015827178955 0.19145788252353668
1.6235939264297485 -2.2956318855285645 0.1350584179162979
0.7622902989387512 0.24225209653377533 0.015078750438988209
0.8290094137191772 -0.09562642127275467 0.028704136610031128
3.5239579677581787 -2.0774271488189697 0.18718937039375305
1.6175838708877563 -2.269444227218628 0.13094058632850647
0.7613896727561951 0.24504196643829346 0.01549755409359932
0.8293269276618958 -0.0928773581981659 0.028558487072587013
3.527320384979248 -2.062025547027588 0.1848215013742447
1.6172152757644653 -2.251422166824341 0.1278175711631775
0.7604864239692688 0.24783094227313995 0.01549755409359932
0.8346397876739502 -0.0903761237859726 0.02843645215034485
3.530616283416748 -2.0466268062591553 0.18245883285999298
1.6079479455947876 -2.2212929725646973 0.1240428015589714
0.7643150687217712 0.2521812319755554 0.015875358134508133
0.8250452280044556 -0.0861334428191185 0.027953140437602997
3.543217182159424 -2.0349724292755127 0.1805427372455597
1.605134129524231 -2.1987690925598145 0.1207633912563324
0.7633804082870483 0.25497913360595703 0.016156300902366638
0.8352847695350647 -0.08425601571798325 0.028289925307035446
3.5630204677581787 -2.030663013458252 0.17977336049079895
1.6036025285720825 -2.181443929672241 0.11773601174354553
0.7624407410621643 0.25777536630630493 0.016156300902366638
0.8256688714027405 -0.08008468151092529 0.027518795803189278
3.5756285190582275 -2.018876314163208 0.176409050822258
1.6005191802978516 -2.159034490585327 0.11405274271965027
0.7568405866622925 0.2586818039417267 0.016614338383078575
0.8209582567214966 -0.07673610001802444 0.027640841901302338
3.6128368377685547 -2.0241143703460693 0.17718854546546936
1.6077055931091309 -2.1537628173828125 0.11264550685882568
0.7557932734489441 0.26171690225601196 0.01675393432378769
0.8262337446212769 -0.07403011620044708 0.027518795803189278
3.629802942276001 -2.0145177841186523 0.1739933341741562
1.6074063777923584 -2.135425567626953 0.10875202715396881
0.7642587423324585 0.26778939366340637 0.01724604144692421
0.8314736485481262 -0.07142862677574158 0.027830226346850395
3.645268678665161 -2.0073187351226807 0.17295950651168823
1.6115063428878784 -2.126161813735962 0.10668624937534332
0.7539365887641907 0.26698294281959534 0.017312314361333847
0.82176673412323 -0.0677059218287468 0.02720911055803299
3.674605131149292 -2.0059564113616943 0.17180566489696503
1.5920521020889282 -2.0845787525177 0.10259921848773956
0.8220206499099731 -0.06455007195472717 0.02720911055803299
3.6995863914489746 -2.002028226852417 0.170423224568367
1.5905942916870117 -2.066920757293701 0.09973698854446411
0.8222563862800598 -0.061537131667137146 0.027065200731158257
3.715808153152466 -1.9932339191436768 0.16788427531719208
1.5920884609222412 -2.0532479286193848 0.09708753973245621
0.8175010085105896 -0.05816897749900818 0.026615086942911148
3.7364003658294678 -1.9866794347763062 0.1662653386592865
1.5873600244522095 -2.0317282676696777 0.0936407744884491
1.1669892072677612 0.4328405261039734 0.0284629687666893
0.8326570391654968 -0.05632687360048294 0.027101946994662285
1.5855638980865479 -2.0141689777374268 0.09130680561065674
1.169907808303833 0.4392734169960022 0.02923160046339035
0.8328671455383301 -0.05312929302453995 0.027101946994662285
2.9499781131744385 -1.5395898818969727 0.12725064158439636
1.584375023841858 -1.996119499206543 0.08810412883758545
1.1684447526931763 0.4431505799293518 0.02923160046339035
0.8380445837974548 -0.050376180559396744 0.02726423367857933
2.946232318878174 -1.5252251625061035 0.12571044266223907
1.5820101499557495 -1.978914737701416 0.08581714332103729
1.1666418313980103 0.4478318691253662 0.02988591603934765
0.8282495141029358 -0.04674137383699417 0.026794875040650368
2.979067325592041 -1.527091145515442 0.12509356439113617
1.577443242073059 -1.9570428133010864 0.08294655382633209
1.1698012351989746 0.4535011351108551 0.030443409457802773
0.8284245729446411 -0.04370586574077606 0.026505297049880028
3.033186435699463 -1.542153000831604 0.1247718334197998
1.580811619758606 -1.947965383529663 0.08103028684854507
1.1960444450378418 0.46872466802597046 0.03161955624818802
0.8235735297203064 -0.04071173071861267 0.02634562738239765
3.0478010177612305 -1.5355511903762817 0.12335135787725449
1.5753313302993774 -1.9267363548278809 0.07821278274059296
1.2500680685043335 0.495189368724823 0.03379997983574867
1.5697153806686401 -1.9055719375610352 0.07543012499809265
1.248233675956726 0.4997633397579193 0.03426932170987129
1.567147135734558 -1.8883084058761597 0.0732589140534401
1.3019888401031494 0.526830792427063 0.0360432043671608
4.074934959411621 -1.9954081773757935 0.15765181183815002
1.5651333332061768 -1.8705512285232544 0.07068292796611786
0.9489591121673584 -0.03280673176050186 0.03000594489276409
4.068141460418701 -1.9753834009170532 0.1539737582206726
1.564934253692627 -1.857761025428772 0.06784957647323608
0.9590631723403931 -0.02963712252676487 0.030321797356009483
4.066396236419678 -1.9561504125595093 0.15205834805965424
1.5588269233703613 -1.8368054628372192 0.06560929119586945
1.140882968902588 1.2260186672210693 0.029817376285791397
1.134637713432312 0.47369876503944397 0.033270642161369324
0.934187114238739 -0.025441527366638184 0.029532166197896004
4.060076713562012 -1.9348177909851074 0.14919829368591309
1.5655852556228638 -1.8311223983764648 0.06350691616535187
1.1293659210205078 1.2230253219604492 0.03109210543334484
1.1374883651733398 0.47979217767715454 0.03383682668209076
0.9542624950408936 -0.022321799769997597 0.030163871124386787
4.054274559020996 -1.9121201038360596 0.14791862666606903
1.556634783744812 -1.8059262037277222 0.061183661222457886
1.1286683082580566 1.230431318283081 0.03235114365816116
1.1312758922576904 0.48159685730934143 0.03434361517429352
0.9293519854545593 -0.018493527546525 0.029374241828918457
4.06063985824585 -1.8986868858337402 0.14635391533374786
1.5596802234649658 -1.796738624572754 0.059394367039203644
1.137594223022461 1.2493232488632202 0.034213095903396606
1.1249005794525146 0.48376068472862244 0.03463144600391388
0.9494009613990784 -0.015411613509058952 0.03000594489276409
4.054013252258301 -1.877511978149414 0.14430491626262665
1.5597009658813477 -1.783515453338623 0.05749073997139931
1.130075454711914 1.2493635416030884 0.03528797626495361
1.1276130676269531 0.4900661110877991 0.03498738631606102
0.9344596862792969 -0.011743385344743729 0.029532166197896004
4.056415557861328 -1.8605985641479492 0.14102792739868164
1.5563533306121826 -1.7665791511535645 0.05466141924262047
1.131706714630127 1.2613078355789185 0.03697622939944267
1.130368709564209 0.4961971640586853 0.035775989294052124
0.9544856548309326 -0.008496272377669811 0.030163871124386787
1.5522774457931519 -1.750217080116272 0.05268005654215813
1.1407997608184814 1.2799557447433472 0.03890877217054367
1.1193931102752686 0.4962805211544037 0.03591373190283775
0.9345197677612305 -0.005056288093328476 0.029532166197896004
4.037834644317627 -1.8172167539596558 0.13605841994285583
1.548720121383667 -1.73336660861969 0.05031391605734825
1.1133407354354858 1.2575180530548096 0.03899413347244263
1.131056785583496 0.506894052028656 0.03700247034430504
0.9545220136642456 -0.0016659570392221212 0.030163871124386787
4.044511318206787 -1.8024243116378784 0.1345127820968628
1.5550802946090698 -1.7276979684829712 0.04909682646393776
1.0886869430541992 1.2392263412475586 0.03973730653524399
1.134090542793274 0.5122998356819153 0.037586063146591187
0.9545272588729858 0.0016659661196172237 0.029997272416949272
4.042009353637695 -1.7835813760757446 0.13189589977264404
1.548004150390625 -1.7072107791900635 0.04626120999455452
1.077548623085022 1.2356525659561157 0.04064106568694115
1.1458278894424438 0.5226669907569885 0.038698334246873856
0.9395120143890381 0.005083298776298761 0.029854070395231247
4.039401531219482 -1.7647711038589478 0.13005878031253815
1.5374095439910889 -1.6830881834030151 0.04456588998436928
1.0795363187789917 1.247130274772644 0.04204043373465538
1.1575162410736084 0.5331324338912964 0.03938145190477371
0.9544894099235535 0.008662909269332886 0.029997272416949272
4.041337966918945 -1.748005747795105 0.1268373429775238
1.5405056476593018 -1.6735278367996216 0.04208621010184288
1.0460469722747803 1.2165712118148804 0.04201400279998779
1.1645985841751099 0.5415772199630737 0.040362823754549026
0.9444569945335388 0.012033886276185513 0.02968316525220871
4.03856897354126 -1.729264497756958 0.12501589953899384
1.5364512205123901 -1.6568944454193115 0.04023120552301407
1.0675145387649536 1.25078284740448 0.04449610412120819
0.9494034051895142 0.015577400103211403 0.029840219765901566
4.035696029663086 -1.7105581760406494 0.12396642565727234
1.5425370931625366 -1.6512770652770996 0.03825927898287773
1.0661283731460571 1.2584705352783203 0.046070706099271774
0.9493451714515686 0.01905713602900505 0.02967449463903904
4.03279972076416 -1.6919209957122803 0.12063059955835342
1.5383185148239136 -1.6347090005874634 0.03643825650215149
1.0679155588150024 1.2699888944625854 0.04779795929789543
0.9542466402053833 0.02298799529671669 0.030163871124386787
4.034942626953125 -1.6738035678863525 0.12049273401498795
1.5380079746246338 -1.621288776397705 0.03432578593492508
1.0632319450378418 1.2738685607910156 0.04895636811852455
1.6649450063705444 0.8041490316390991 0.061659783124923706
0.9042187929153442 0.024783307686448097 0.028268860653042793
4.022055625915527 -1.652846336364746 0.11690552532672882
1.5433921813964844 -1.6161967515945435 0.03276563435792923
1.0553398132324219 1.2738748788833618 0.0502525195479393
1.6664490699768066 0.8124215006828308 0.0627971664071083
0.9540575742721558 0.02964911423623562 0.030330464243888855
4.018845081329346 -1.6343355178833008 0.11587957292795181
1.5493208169937134 -1.610545039176941 0.031205471605062485
1.0472447872161865 1.2740296125411987 0.05125207453966141
0.9489585757255554 0.032972536981105804 0.029840219765901566
1.562471628189087 -1.6117825508117676 0.029386140406131744
1.0398305654525757 1.273596167564392 0.05224462226033211
1.9785006046295166 0.9817058444023132 0.07674240320920944
0.9338446855545044 0.03587469086050987 0.029532166197896004
3.970458984375 -1.5808403491973877 0.10966882854700089
1.5683826208114624 -1.6060594320297241 0.027818962931632996
1.0382729768753052 1.2812455892562866 0.05384257435798645
1.9882569313049316 0.9956448674201965 0.07842756807804108
0.9436930418014526 0.039717454463243484 0.029848018661141396
3.939056873321533 -1.5516356229782104 0.10716486722230911
1.5812840461730957 -1.6074419021606445 0.026368703693151474
1.0335400104522705 1.2850052118301392 0.055281683802604675
1.9841946363449097 1.0035932064056396 0.07997993379831314
0.9485334157943726 0.04340444132685661 0.03000594489276409
3.8376331329345703 -1.4954590797424316 0.10281714051961899
1.590696930885315 -1.6051995754241943 0.02484949678182602
1.0230048894882202 1.2805789709091187 0.05637698620557785
0.9283971786499023 0.04589347913861275 0.029536474496126175
3.9364013671875 -1.5173523426055908 0.10384009033441544
1.5965843200683594 -1.5993732213974 0.022877385839819908
1.0244824886322021 1.292111873626709 0.05815977230668068
0.9481844902038574 0.05035604164004326 0.03017166629433632
1.591810703277588 -1.5829451084136963 0.021158311516046524
1.01971435546875 1.2958258390426636 0.05931096151471138
1.4411717653274536 0.7483093738555908 0.06067971512675285
0.9379990100860596 0.05326344072818756 0.03034600242972374
4.518850803375244 -4.460861682891846 0.056521739810705185
1.0056992769241333 1.287699580192566 0.060197632759809494
1.4339840412139893 0.751262903213501 0.06077555567026138
0.9278312921524048 0.05609844997525215 0.029698707163333893
3.8218069076538086 -1.4251148700714111 0.0961238369345665
4.514556407928467 -4.4225239753723145 0.04963665083050728
1.0070621967315674 1.299233078956604 0.062000349164009094
1.43117356300354 0.7564886212348938 0.062188249081373215
0.932590901851654 0.05981762334704399 0.030347689986228943
3.8270044326782227 -1.411097764968872 0.0961238369345665
4.516409397125244 -4.392016410827637 0.04728052392601967
1.0022602081298828 1.3028719425201416 0.06343483924865723
1.4371988773345947 0.7664259076118469 0.06285640597343445
4.496537685394287 -4.340739727020264 0.0403604581952095
0.9974441528320312 1.3064920902252197 0.06486927717924118
3.7106006145477295 -1.3366299867630005 0.0888131782412529
4.512436389923096 -4.324248313903809 0.03599721938371658
0.9837966561317444 1.2979849576950073 0.06541482359170914
3.630739212036133 -1.2928481101989746 0.0854417011141777
0.9759950041770935 1.2975434064865112 0.06663107126951218
0.8020845651626587 0.06326628476381302 0.026128225028514862
3.607189655303955 -1.26958429813385 0.08344192802906036
0.9682093262672424 1.297061562538147 0.06783855706453323
2.007322072982788 1.1085585355758667 0.09370335936546326
0.8118035197257996 0.06702769547700882 0.026594968512654305
3.5929601192474365 -1.2497950792312622 0.08167774975299835
3.6082656383514404 -3.3812832832336426 0.018987389281392097
0.9663867354393005 1.304567575454712 0.06946475058794022
0.8115478157997131 0.07000225782394409 0.026737136766314507
3.7346243858337402 -1.2837474346160889 0.08410105854272842
3.62064528465271 -3.3680458068847656 0.01467208843678236
0.9620116353034973 1.3077057600021362 0.07116484642028809
0.811276376247406 0.07297541201114655 0.027021469548344612
3.69197154045105 -1.2539740800857544 0.08303648978471756
3.640319347381592 -3.3615431785583496 0.011242528446018696
0.9571901559829712 1.3111926317214966 0.07201486825942993
1.71672785282135 0.9728606939315796 0.08373760432004929
0.8010572195053101 0.07501695305109024 0.02654949575662613
3.6586830615997314 -1.2277294397354126 0.07949063181877136
3.6710493564605713 -3.3650760650634766 0.007822562009096146
0.9523406624794006 1.3146406412124634 0.07343153655529022
1.7091162204742432 0.9760490655899048 0.08455615490674973
0.8007993698120117 0.07767249643802643 0.026689916849136353
3.6773934364318848 -1.2190303802490234 0.07979954034090042
3.683361530303955 -3.3516008853912354 0.004345869179815054
0.9445551633834839 1.314003586769104 0.07490027695894241
1.696831464767456 0.9772982597351074 0.08515223860740662
0.8054530620574951 0.08138887584209442 0.026855694130063057
3.7008659839630127 -1.2117745876312256 0.078852079808712
3.718470811843872 -3.357539415359497 0.0008744099177420139
0.9338938593864441 1.309270977973938 0.07584138959646225
0.8101146817207336 0.08486058562994003 0.027163634076714516
3.6339735984802246 -1.175142526626587 0.07533399760723114
3.7381982803344727 -3.350562334060669 -0.00262846564874053
0.9405912160873413 1.3289363384246826 0.07820434868335724
1.8792015314102173 1.1007581949234009 0.09661071747541428
0.8048254251480103 0.08728990703821182 0.027138281613588333
3.647805690765381 -1.1648648977279663 0.0741945430636406
3.76165771484375 -3.346806764602661 -0.0061514112167060375
0.9246610999107361 1.315659761428833 0.07836746424436569
0.8045111298561096 0.09009820222854614 0.027279570698738098
3.628211736679077 -1.1439707279205322 0.07371024042367935
3.7776424884796143 -3.336303234100342 -0.009676098823547363
0.9140722751617432 1.310779333114624 0.07955419272184372
0.7992067337036133 0.09247137606143951 0.027251601219177246
3.613312005996704 -1.1247295141220093 0.07200182974338531
3.804880142211914 -3.335615634918213 -0.012363899499177933
0.9092220067977905 1.3140631914138794 0.08094870299100876
0.8038195371627808 0.09599196910858154 0.027562152594327927
3.6365365982055664 -1.1173553466796875 0.07171831279993057
3.836514472961426 -3.3373830318450928 -0.015974972397089005
0.9128378033638 1.3296781778335571 0.0831151157617569
0.8034622669219971 0.09893746674060822 0.027562152594327927
3.6551764011383057 -1.1077407598495483 0.07066783308982849
3.863848924636841 -3.336361885070801 -0.019601745530962944
0.899253785610199 1.3207310438156128 0.08373752236366272
0.8030894994735718 0.10188103467226028 0.02770344354212284
3.6257083415985107 -1.0843168497085571 0.06869936734437943
3.8836324214935303 -3.3286757469177246 -0.023211052641272545
0.8976242542266846 1.327781319618225 0.0853978842496872
0.8076792359352112 0.10532927513122559 0.02801661193370819
3.6296699047088623 -1.071023941040039 0.06803886592388153
3.9148342609405518 -3.3306071758270264 -0.026912854984402657
0.8954907059669495 1.335146188735962 0.0870668888092041
0.8072543144226074 0.10842780768871307 0.02844308875501156
3.6095712184906006 -1.050727128982544 0.06758946925401688
3.8429667949676514 -3.2452597618103027 -0.028092673048377037
0.9016115069389343 1.3549811840057373 0.08956879377365112
0.8019062876701355 0.11070313304662704 0.028127307072281837
3.651872396469116 -1.048537254333496 0.06631913781166077
3.8400497436523438 -3.217618465423584 -0.03235294297337532
0.8800939917564392 1.3332130908966064 0.08931440114974976
3.5835392475128174 -1.0147149562835693 0.06501021236181259
3.832582712173462 -3.1875252723693848 -0.034801580011844635
0.8860981464385986 1.3530688285827637 0.09184231609106064
3.404858350753784 2.164958953857422 0.2036912590265274
3.572810173034668 -0.9975465536117554 0.06345358490943909
3.886634111404419 -3.20845365524292 -0.0387040413916111
0.8702024221420288 1.339482307434082 0.09238122403621674
3.4051878452301025 2.1827361583709717 0.20701922476291656
0.8698502779006958 0.12953440845012665 0.031325530260801315
3.5909130573272705 -0.988427996635437 0.06306009739637375
3.8944783210754395 -3.19100022315979 -0.0421806201338768
0.8679471611976624 1.3467903137207031 0.09406817704439163
3.3802974224090576 2.184302568435669 0.2081042230129242
0.9335288405418396 0.14284999668598175 0.03380417823791504
3.5945332050323486 -0.9752657413482666 0.061760008335113525
3.87176251411438 -3.147618055343628 -0.045287180691957474
0.8634316921234131 1.3495913743972778 0.09546636790037155
0.9281074404716492 0.14517179131507874 0.03378927707672119
3.5884344577789307 -0.9595044851303101 0.06094590574502945
3.898818254470825 -3.1459498405456543 -0.04809180647134781
0.8610995411872864 1.3568757772445679 0.09744671732187271
0.9176839590072632 0.1469891518354416 0.03391644358634949
3.577444076538086 -0.94253009557724 0.05940844863653183
3.9415221214294434 -3.156625509262085 -0.05111981928348541
0.8613921403884888 1.3683972358703613 0.09946306049823761
0.9368564486503601 0.15358401834964752 0.03481152281165123
3.6197609901428223 -0.9388304352760315 0.05939804017543793
4.082195281982422 -3.2447988986968994 -0.0564306266605854
0.8483864665031433 1.3587573766708374 0.10021963715553284
2.2515158653259277 1.501006841659546 0.14749816060066223
0.926419734954834 0.15536195039749146 0.03477298468351364
3.5795929431915283 -0.9144231081008911 0.058038536459207535
0.8438388705253601 1.3615033626556396 0.10133792459964752
2.2542223930358887 1.5147745609283447 0.14946448802947998
0.9258381128311157 0.1587553769350052 0.03493693098425865
3.573223829269409 -0.8988578915596008 0.05788146331906319
4.192999362945557 -3.2818264961242676 -0.06319688260555267
0.8544748425483704 1.3900160789489746 0.10465601086616516
2.289902448654175 1.5509634017944336 0.1541428565979004
0.9350869655609131 0.16387158632278442 0.035474296659231186
3.5522398948669434 -0.879748523235321 0.05685006454586983
4.216799259185791 -3.275602340698242 -0.0680345818400383
0.8389278054237366 1.3760039806365967 0.10506351292133331
2.259352922439575 1.5423821210861206 0.15486079454421997
0.9295434951782227 0.16641396284103394 0.035782039165496826
3.565154790878296 -0.8690910935401917 0.057005394250154495
4.244595527648926 -3.2723207473754883 -0.07016022503376007
0.8312495350837708 1.3747212886810303 0.10614021122455597
0.914176344871521 0.16712313890457153 0.03537626937031746
3.568325996398926 -0.8560206294059753 0.056364934891462326
4.272974014282227 -3.2681171894073486 -0.07417763769626617
0.844107449054718 1.4076117277145386 0.11016644537448883
0.9135454893112183 0.17047035694122314 0.035700663924217224
3.5617175102233887 -0.8406416773796082 0.05557263642549515
4.284902572631836 -3.252418041229248 -0.07605542987585068
0.8388832807540894 1.410596251487732 0.11188515275716782
1.3582698106765747 0.9493054151535034 0.0975809171795845
0.9276326894760132 0.17661982774734497 0.03644128888845444
3.564793586730957 -0.8275860548019409 0.05429519712924957
4.280777931213379 -3.224626302719116 -0.079514279961586
0.8285897374153137 1.4049835205078125 0.11262845993041992
0.912259042263031 0.17715995013713837 0.03602505102753639
3.5483157634735107 -0.8100660443305969 0.05336327105760574
4.2845258712768555 -3.2029027938842773 -0.08216686546802521
0.8213567733764648 1.4033335447311401 0.11370304971933365
1.3226877450942993 0.9389433860778809 0.09750530123710632
0.8919931650161743 0.17661939561367035 0.035409022122621536
3.541513681411743 -0.794867753982544 0.05258318409323692
4.280682563781738 -3.174481153488159 -0.08558028191328049
0.8136439323425293 1.4019170999526978 0.1150517538189888
1.3112413883209229 0.9377185702323914 0.09774934500455856
0.9206993579864502 0.1858127862215042 0.03723209351301193
3.5443944931030273 -0.7818800806999207 0.05321666970849037
4.27213191986084 -3.1439366340637207 -0.08703042566776276
0.8134146332740784 1.4134294986724854 0.11746757477521896
1.3039911985397339 0.9390848875045776 0.0991295576095581
0.9200057983398438 0.18918476998806 0.03739602491259575
3.5423502922058105 -0.7678249478340149 0.053143370896577835
4.267452239990234 -3.116445541381836 -0.08854687958955765
0.8229960203170776 1.4422807693481445 0.12136195600032806
1.312267780303955 0.9530684351921082 0.10118541121482849
0.92906653881073 0.19459985196590424 0.03829087316989899
3.530611515045166 -0.7510986924171448 0.05229346826672554
4.27879524230957 -3.1007466316223145 -0.09223596006631851
0.8228058218955994 1.4537122249603271 0.12384017556905746
1.30064058303833 0.9519250392913818 0.10196931660175323
0.9185488820075989 0.19591394066810608 0.03854351490736008
3.5333316326141357 -0.7381514310836792 0.05292346701025963
4.270359992980957 -3.069695234298706 -0.09271755814552307
0.8222990036010742 1.4653196334838867 0.12604589760303497
1.3496522903442383 0.9946858882904053 0.10695121437311172
0.9276172518730164 0.20123592019081116 0.03911921754479408
3.540919780731201 -0.7262024283409119 0.052365899085998535
4.253052711486816 -3.033673048019409 -0.09483598917722702
0.8241299390792847 1.481277585029602 0.12894313037395477
0.9268466234207153 0.20462852716445923 0.03978186845779419
3.5582430362701416 -0.7161751985549927 0.05385015532374382
4.260035514831543 -3.0151569843292236 -0.09656704217195511
0.8715879917144775 1.5801823139190674 0.13949137926101685
0.9211958646774292 0.20692478120326996 0.040066853165626526
3.541215658187866 -0.6992529034614563 0.05418345704674721
4.250575065612793 -2.985137939453125 -0.09791763871908188
0.8378462195396423 1.519008755683899 0.13500502705574036
0.9162805080413818 0.20582066476345062 0.040838319808244705
3.55562686920166 -0.7033882141113281 0.058204226195812225
4.25369119644165 -2.989543914794922 -0.09347479790449142
0.8070869445800781 1.450644850730896 0.12831665575504303
1.3177160024642944 0.978622317314148 0.10930703580379486
0.9267703294754028 0.20461168885231018 0.04160406440496445
3.5580203533172607 -0.7167765498161316 0.060184918344020844
4.260153770446777 -3.0152406692504883 -0.08836877346038818
0.8148818612098694 1.4521024227142334 0.12753954529762268
0.9275068044662476 0.20121197402477264 0.041769713163375854
3.5403926372528076 -0.7280262112617493 0.06182876601815224
4.2562150955200195 -3.03817081451416 -0.08397465199232101
0.8153305649757385 1.4405051469802856 0.1256202906370163
1.2967257499694824 0.9483648538589478 0.10585982352495193
0.9282310009002686 0.1978096216917038 0.041935358196496964
3.5180962085723877 -0.7368912100791931 0.06336875259876251
4.285154819488525 -3.0837347507476807 -0.08017036318778992
0.8157044649124146 1.4289230108261108 0.12371489405632019
1.296184778213501 0.9406968951225281 0.10497201979160309
0.928949773311615 0.1944061517715454 0.041935358196496964
3.583787441253662 -0.7643729448318481 0.06652131676673889
4.277925491333008 -3.1023950576782227 -0.07563474774360657
0.8105361461639404 1.408996343612671 0.12108054012060165
1.2956048250198364 0.9330453872680664 0.10408768057823181
0.9051843881607056 0.18597231805324554 0.04099307954311371
3.522303819656372 -0.7647671699523926 0.06731954962015152
4.278676986694336 -3.1269335746765137 -0.07214967906475067
0.8232438564300537 1.4190282821655273 0.12104950100183487
1.3274621963500977 0.948618471622467 0.10579508543014526
0.9254461526870728 0.18660268187522888 0.04187941551208496
3.563236713409424 -0.7879933714866638 0.07007066160440445
4.2827887535095215 -3.1552369594573975 -0.0677797719836235
0.823466420173645 1.4075015783309937 0.11860604584217072
1.346922516822815 0.9557934999465942 0.10622446238994598
0.9261309504508972 0.18321089446544647 0.04171464592218399
3.565190076828003 -0.8021426796913147 0.07080445438623428
4.279252529144287 -3.1768946647644043 -0.06511661410331726
0.8312060832977295 1.408857822418213 0.11754130572080612
1.4198367595672607 0.9997301697731018 0.1104678362607956
0.9317071437835693 0.18076802790164948 0.041769713163375854
3.567371368408203 -0.8150715231895447 0.0715399831533432
4.288759708404541 -3.2060678005218506 -0.06074924394488335
0.834100604057312 1.4014403820037842 0.11604441702365875
0.9274490475654602 0.17641714215278625 0.04171464592218399
3.5834968090057373 -0.8339058756828308 0.07449952512979507
4.28786563873291 -3.232311964035034 -0.05717066675424576
0.8392729759216309 1.3984428644180298 0.11490581184625626
2.260040283203125 1.5660935640335083 0.1720280796289444
0.9231931567192078 0.1721039116382599 0.04116612672805786
3.604727029800415 -0.8527857065200806 0.07565214484930038
4.279441833496094 -3.2518064975738525 -0.052533574402332306
0.8470166325569153 1.3996931314468384 0.11411508172750473
2.2529125213623047 1.5501211881637573 0.17061416804790497
0.9238106608390808 0.16871778666973114 0.04133003205060959
3.582096815109253 -0.8613079190254211 0.07717281579971313
4.255619049072266 -3.2583768367767334 -0.04770968481898308
0.8491083383560181 1.3927019834518433 0.11234377324581146
2.2710413932800293 1.5503615140914917 0.16962853074073792
0.929347038269043 0.16621141135692596 0.041385095566511154
3.5983269214630127 -0.8791738748550415 0.07823816686868668
4.231785297393799 -3.264800548553467 -0.045710489153862
0.8490333557128906 1.3811640739440918 0.11024188250303268
2.2478091716766357 1.5224535465240479 0.1669996976852417
0.9250226020812988 0.16194142401218414 0.04133003205060959
3.5998775959014893 -0.8935472369194031 0.08093322068452835
4.204031467437744 -3.268038034439087 -0.04089266061782837
0.8488839268684387 1.3696433305740356 0.10815732926130295
2.236900806427002 1.5031349658966064 0.16389033198356628
0.9108534455299377 0.15602229535579681 0.040347930043935776
3.6012535095214844 -0.9085826277732849 0.08169052749872208
4.179666996002197 -3.2749218940734863 -0.037070490419864655
0.8565818667411804 1.3708175420761108 0.10736371576786041
2.2715351581573486 1.5143530368804932 0.1645853966474533
0.9311326146125793 0.15598523616790771 0.04105554521083832
3.6027278900146484 -0.9230128526687622 0.08244958519935608
4.124486923217773 -3.256155014038086 -0.033017922192811966
0.8643192648887634 1.371984601020813 0.10599707067012787
2.243861436843872 1.4840532541275024 0.16030021011829376
0.9317051768302917 0.15257257223129272 0.04089076444506645
3.6379947662353516 -0.9462707042694092 0.08464829623699188
3.9990651607513428 -3.181000232696533 -0.028539473190903664
0.868903636932373 1.3691730499267578 0.10486499965190887
2.2409861087799072 1.4703736305236816 0.15876981616020203
0.9273185133934021 0.14836636185646057 0.040838319808244705
3.620293140411377 -0.9544950723648071 0.08627097308635712
3.9143552780151367 -3.134868621826172 -0.025383086875081062
0.8605098724365234 1.3450244665145874 0.10213697701692581
2.267346143722534 1.4758096933364868 0.1588316261768341
0.9327985048294067 0.14573876559734344 0.04089076444506645
3.6550440788269043 -0.9793661236763 0.0878528505563736
3.885650396347046 -3.1386852264404297 -0.02005116082727909
0.8736053109169006 1.3545314073562622 0.10140669345855713
2.2015221118927 1.4215048551559448 0.1524777114391327
0.9333335161209106 0.14232000708580017 0.040725987404584885
3.5886945724487305 -0.9756993651390076 0.08764231950044632
3.8780059814453125 -3.1560678482055664 -0.017453256994485855
0.8813321590423584 1.355578064918518 0.10030966997146606
2.143754720687866 1.3730980157852173 0.14634393155574799
3.6332664489746094 -1.0021328926086426 0.08947812020778656
3.8470888137817383 -3.154416084289551 -0.01389280240982771
0.8781260251998901 1.3398747444152832 0.09826251119375229
2.161456346511841 1.3732900619506836 0.14631091058254242
3.5910286903381348 -1.0046603679656982 0.08983039855957031
3.847072124481201 -3.178053617477417 -0.01045102346688509
0.885828971862793 1.340882420539856 0.09716623276472092
0.8111916780471802 0.11458311229944229 0.0351959653198719
3.6353633403778076 -1.031445860862732 0.09301316738128662
3.865586757659912 -3.218400001525879 -0.006145302206277847
0.8907842040061951 1.3376966714859009 0.09576376527547836
0.7967657446861267 0.10956837981939316 0.03441176936030388
3.679563045501709 -1.0585737228393555 0.09558001160621643
3.8920743465423584 -3.264680862426758 -0.0035465084947645664
0.8896825313568115 1.326486349105835 0.09433266520500183
1.8749464750289917 1.1634223461151123 0.12298040837049484
0.797156035900116 0.10664654523134232 0.034552134573459625
3.627842426300049 -1.0574196577072144 0.0949917584657669
3.9232490062713623 -3.3130557537078857 0.000896226498298347
0.9029708504676819 1.3356901407241821 0.09381010383367538
0.7975475192070007 0.1037248820066452 0.03441176936030388
3.6043641567230225 -1.0662930011749268 0.0958012267947197
3.894688367843628 -3.3158116340637207 0.004463678691536188
0.910707950592041 1.3365505933761597 0.09297144412994385
0.7929721474647522 0.10017567127943039 0.034058526158332825
3.624321937561035 -1.08665931224823 0.09841936081647873
3.8673248291015625 -3.3170406818389893 0.008003203198313713
0.9099939465522766 1.3250399827957153 0.09099484235048294
0.803256630897522 0.09848520904779434 0.034343019127845764
3.62028169631958 -1.0999256372451782 0.09974011778831482
3.8432066440582275 -3.322052001953125 0.011526144109666348
0.9089772701263428 1.3137094974517822 0.08903558552265167
0.8036181330680847 0.09554116427898407 0.03420177474617958
3.6404855251312256 -1.119264006614685 0.10106364637613297
3.817077159881592 -3.3216447830200195 0.014130167663097382
0.9281089305877686 1.330907940864563 0.08901084959506989
0.808915376663208 0.09330856800079346 0.03427077829837799
3.645472288131714 -1.1368342638015747 0.1026618629693985
3.7886672019958496 -3.323741912841797 0.018472522497177124
0.9272832870483398 1.3193907737731934 0.08705582469701767
0.8042871356010437 0.08978886157274246 0.0340605266392231
3.6507787704467773 -1.1531879901885986 0.10426705330610275
3.768958806991577 -3.330976724624634 0.02106955088675022
0.9408142566680908 1.3282679319381714 0.08644398301839828
0.8046167492866516 0.08684103935956955 0.03391927853226662
3.6893365383148193 -1.1802561283111572 0.10684424638748169
3.7449281215667725 -3.335437059402466 0.024507815018296242
0.939917802810669 1.3167437314987183 0.08450189232826233
0.794998049736023 0.08285629004240036 0.03336101397871971
3.6849682331085205 -1.1937644481658936 0.10752029716968536
3.728942632675171 -3.3457887172698975 0.027980972081422806
0.9418558478355408 1.309283971786499 0.0831151157617569
1.7481242418289185 1.0068405866622925 0.10360613465309143
0.8052317500114441 0.0809406116604805 0.03391927853226662
3.709026575088501 -1.216597318649292 0.1097152829170227
3.7055115699768066 -3.3493616580963135 0.03138430416584015
0.9496213793754578 1.3099242448806763 0.08196056634187698
1.7218539714813232 0.9825264811515808 0.10042698681354523
0.8105012774467468 0.07847072929143906 0.03398653492331505
3.6807894706726074 -1.2222956418991089 0.11036670953035355
3.6710119247436523 -3.3427069187164307 0.03466195613145828
0.9510409235954285 1.3027691841125488 0.08086305856704712
1.7425299882888794 0.9866791367530823 0.10039035975933075
0.8058092594146729 0.07503637671470642 0.033778030425310135
3.74729061126709 -1.2596466541290283 0.11457006633281708
3.6513383388519287 -3.349353790283203 0.039780858904123306
0.9647286534309387 1.3113991022109985 0.0801934152841568
1.7766622304916382 0.9974241256713867 0.10107599198818207
0.8160364627838135 0.072972871363163 0.0340520516037941
3.6574437618255615 -1.2443830966949463 0.11331148445606232
3.6274149417877197 -3.3531479835510254 0.04310908541083336
0.9695700407028198 1.3079100847244263 0.07877267152070999
0.8461690545082092 0.07254227995872498 0.03514963015913963
3.6433699131011963 -1.254512906074524 0.11436337232589722
3.622401714324951 -3.3732192516326904 0.045788057148456573
0.9829052686691284 1.316749095916748 0.07806368172168732
3.6483700275421143 -1.2704969644546509 0.11600857228040695
3.6294033527374268 -3.4022812843322754 0.05036061629652977
0.987765371799469 1.3131916522979736 0.07662973552942276
3.6290628910064697 -1.2801309823989868 0.11690162867307663
0.9840057492256165 1.2973196506500244 0.07479424774646759
3.5772197246551514 -1.2766053676605225 0.11737217009067535
1.0034923553466797 1.3139387369155884 0.0747871920466423
0.9467818737030029 0.06753398478031158 0.039284881204366684
3.7751212120056152 -1.3613605499267578 0.12401296198368073
4.515783786773682 -4.327455997467041 0.07641733437776566
1.0024755001068115 1.302211046218872 0.07290120422840118
1.4102531671524048 0.7520564198493958 0.07481242716312408
0.9470298886299133 0.06406386941671371 0.03911921754479408
3.7653703689575195 -1.3734605312347412 0.12525759637355804
4.535058975219727 -4.37945556640625 0.08142956346273422
1.0042184591293335 1.2946306467056274 0.0712498351931572
1.4395289421081543 0.7609051465988159 0.07536262273788452
0.9323223233222961 0.05931024253368378 0.0385015495121479
3.881673812866211 -1.4335646629333496 0.1307627409696579
4.538884162902832 -4.418498516082764 0.08734485507011414
1.027451992034912 1.3146055936813354 0.07109718024730682
0.9524875283241272 0.05708868056535721 0.039158567786216736
3.834216356277466 -1.432029366493225 0.13077010214328766
4.558309555053711 -4.470065116882324 0.09249135851860046
1.03182852268219 1.3112201690673828 0.07022355496883392
0.9476888179779053 0.05331587791442871 0.039284881204366684
3.8106577396392822 -1.437647819519043 0.13297483325004578
1.6117202043533325 -1.591037392616272 0.034391261637210846
1.0180424451828003 1.283989429473877 0.06753212958574295
1.9897373914718628 1.023903489112854 0.10083197802305222
0.9379069805145264 0.04931776970624924 0.038707438856363297
3.9075186252593994 -1.4921362400054932 0.13802438974380493
1.6017591953277588 -1.5939505100250244 0.03589293360710144
1.0321327447891235 1.2920050621032715 0.06670673191547394
1.9894274473190308 1.0136638879776 0.09943784028291702
0.9380814433097839 0.04587983712553978 0.038707438856363297
3.915963888168335 -1.5118299722671509 0.1399843692779541
1.595888376235962 -1.5997925996780396 0.0374705009162426
1.0306320190429688 1.2804741859436035 0.06486927717924118
1.9839078187942505 1.002578616142273 0.09782905876636505
0.9482314586639404 0.042893100529909134 0.03895355015993118
3.793971300125122 -1.4807333946228027 0.13723981380462646
1.5826761722564697 -1.5987790822982788 0.03926791250705719
1.0411920547485352 1.2848478555679321 0.06410909444093704
1.9876145124435425 0.9953232407569885 0.0966651663184166
0.953359842300415 0.03995761275291443 0.039158567786216736
3.970309019088745 -1.5647468566894531 0.14529678225517273
1.5738407373428345 -1.6004340648651123 0.040747709572315216
1.0396095514297485 1.2733253240585327 0.06228725239634514
0.9235535860061646 0.03531792387366295 0.03776714950799942
4.015613079071045 -1.5996302366256714 0.14716827869415283
1.567954421043396 -1.6061815023422241 0.04153122752904892
1.053826093673706 1.2811243534088135 0.06140761449933052
0.9336737394332886 0.03195200115442276 0.038175445050001144
4.023581504821777 -1.6199171543121338 0.14919275045394897
1.5515943765640259 -1.601121187210083 0.043199434876441956
1.087930679321289 1.3113499879837036 0.06158537417650223
1.6976515054702759 0.8268998861312866 0.0794745609164238
0.9537585973739624 0.029139960184693336 0.038992032408714294
1.538204550743103 -1.600106954574585 0.044555261731147766
1.0890905857086182 1.3039246797561646 0.060515228658914566
1.6917096376419067 0.8163477778434753 0.07807055860757828
0.9488717317581177 0.02550998516380787 0.03862221539020538
1.5461008548736572 -1.6201651096343994 0.04730188846588135
1.0778093338012695 1.2808469533920288 0.05816449224948883
0.9439508318901062 0.021915752440690994 0.03874853253364563
1.5470046997070312 -1.633054494857788 0.049083489924669266
1.023935317993164 1.2086654901504517 0.05393334478139877
0.9490131735801697 0.018884772434830666 0.03895355015993118
1.5481212139129639 -1.645701289176941 0.05087903141975403
1.0515273809432983 1.2311804294586182 0.053711388260126114
0.9441062808036804 0.014996025711297989 0.03825414553284645
1.5448880195617676 -1.655530571937561 0.05257244408130646
1.0784415006637573 1.2542465925216675 0.05342833325266838
1.1508393287658691 0.5346902012825012 0.050745896995067596
0.9491328597068787 0.01192778442054987 0.03878788650035858
1.5461540222167969 -1.6679418087005615 0.054789312183856964
1.076511263847351 1.2427586317062378 0.051957663148641586
1.1346608400344849 0.5221256017684937 0.04929276555776596
0.9341861009597778 0.007989460602402687 0.038175445050001144
1.5427966117858887 -1.677778720855713 0.0568988062441349
1.1008042097091675 1.261431097984314 0.05144421383738518
1.1320438385009766 0.5159021019935608 0.04844421520829201
0.9442124366760254 0.0049439300782978535 0.03825414553284645
1.5540663003921509 -1.7013232707977295 0.05832704156637192
1.115115761756897 1.2688630819320679 0.051020435988903046
1.1201038360595703 0.5059816837310791 0.047431521117687225
0.9392282962799072 0.0014753376599401236 0.03805174306035042
1.5511428117752075 -1.7106722593307495 0.06046874821186066
1.1429789066314697 1.29099440574646 0.05057239159941673
1.1263583898544312 0.5043163895606995 0.046978164464235306
0.9542224407196045 -0.0016654341015964746 0.03849240392446518
1.5548652410507202 -1.7274590730667114 0.06248399242758751
1.1236464977264404 0.4981662333011627 0.046358924359083176
0.9492140412330627 -0.005135792773216963 0.03829087316989899
1.5584766864776611 -1.744286298751831 0.06492838263511658
1.1954246759414673 1.3313874006271362 0.04966743662953377
1.1256592273712158 0.4936612844467163 0.045715346932411194
0.9541680216789246 -0.008993087336421013 0.038825489580631256
1.5613690614700317 -1.7617064714431763 0.06739889830350876
1.1399682760238647 1.260300636291504 0.04598381370306015
1.1227291822433472 0.4879435896873474 0.04488854482769966
0.9541464447975159 -0.012157346121966839 0.03849240392446518
4.073066234588623 -1.8690965175628662 0.17842678725719452
1.5690159797668457 -1.7815788984298706 0.06921432167291641
1.1210410594940186 1.2302814722061157 0.04358461871743202
1.1201026439666748 0.4814656972885132 0.04427974671125412
0.9440861344337463 -0.015819797292351723 0.03841894119977951
4.0748677253723145 -1.8888980150222778 0.18039239943027496
1.5683873891830444 -1.7953444719314575 0.07158613950014114
1.1289480924606323 1.2298741340637207 0.04225863516330719
1.1401029825210571 0.48558974266052246 0.044356804341077805
0.954018235206604 -0.01915094442665577 0.038825489580631256
4.072689056396484 -1.9051871299743652 0.1829473376274109
1.5722181797027588 -1.8118211030960083 0.07371111214160919
1.1332539319992065 1.2259471416473389 0.041093118488788605
1.1372849941253662 0.47947263717651367 0.04374712333083153
0.9339770078659058 -0.02217348851263523 0.03768628090620041
4.079566955566406 -1.9257898330688477 0.1835571676492691
1.5753263235092163 -1.8289016485214233 0.07543569058179855
1.1309460401535034 1.2144899368286133 0.03968849405646324
1.1713366508483887 0.48878011107444763 0.044322360306978226
0.9538521766662598 -0.02614368498325348 0.038825489580631256
4.081044673919678 -1.9456841945648193 0.18712009489536285
1.5718077421188354 -1.8384002447128296 0.07812481373548508
1.1354130506515503 1.2103614807128906 0.03824027255177498
0.9437661170959473 -0.02965904399752617 0.038089342415332794
4.091518878936768 -1.9699945449829102 0.18873971700668335
1.5676119327545166 -1.8484644889831543 0.07997829467058182
1.1329885721206665 1.1989399194717407 0.03714619576931
4.003246784210205 -1.9455994367599487 0.1888865977525711
1.5800800323486328 -1.8770701885223389 0.08353713899850845
1.1339547634124756 1.1911860704421997 0.03531140834093094
1.2555328607559204 0.5075231194496155 0.04563434422016144
3.9653732776641846 -1.943474531173706 0.1874026507139206
1.577033519744873 -1.8861109018325806 0.08456548303365707
1.1344525814056396 1.1838232278823853 0.03434556722640991
1.1970882415771484 0.4788011312484741 0.042770177125930786
1.5824940204620361 -1.9074777364730835 0.0874159038066864
1.132273554801941 1.1720941066741943 0.032429568469524384
1.1756154298782349 0.46522170305252075 0.041499972343444824
0.8683773279190063 -0.0398884154856205 0.035066381096839905
1.5842998027801514 -1.9253301620483398 0.09012053161859512
1.150316834449768 1.1824837923049927 0.031675778329372406
1.1680257320404053 0.4572739899158478 0.04051514342427254
0.8233171105384827 -0.04084310308098793 0.03325260058045387
3.0284883975982666 -1.527146816253662 0.14867979288101196
1.589824914932251 -1.9465419054031372 0.0930362269282341
1.1650466918945312 0.45119020342826843 0.03991761803627014
0.8281466960906982 -0.04398109391331673 0.03374361991882324
2.982757329940796 -1.5178240537643433 0.1478773057460785
1.5920778512954712 -1.9639489650726318 0.09535615891218185
1.1712156534194946 0.44911858439445496 0.0396394319832325
0.8429434299468994 -0.04786579683423042 0.03435344249010086
2.9554171562194824 -1.5162708759307861 0.14851298928260803
1.594914436340332 -1.9808400869369507 0.09769696742296219
1.168354868888855 0.44265010952949524 0.038827329874038696
0.8228298425674438 -0.049605727195739746 0.03339647501707077
2.9891517162323 -1.548767328262329 0.15228569507598877
1.5869070291519165 -1.9871727228164673 0.09947238117456436
1.1791876554489136 0.44228821992874146 0.038698334246873856
0.8326138854026794 -0.053259044885635376 0.033801279962062836
3.0193698406219482 -1.5771467685699463 0.15528233349323273
1.5926837921142578 -2.008026599884033 0.10204341262578964
1.171441912651062 0.4344920217990875 0.03795507550239563
0.8274286389350891 -0.05597318336367607 0.0335988774895668
1.6007083654403687 -2.033407211303711 0.10529635846614838
0.8272178769111633 -0.059005483984947205 0.0335988774895668
3.7264339923858643 -1.9813801050186157 0.196078360080719
1.6024147272109985 -2.050997257232666 0.108177550137043
0.8269743919372559 -0.06232566758990288 0.0335988774895668
3.687556266784668 -1.9797369241714478 0.1966455578804016
1.6063488721847534 -2.0731329917907715 0.11129681766033173
0.7668766975402832 0.2748836278915405 0.02375143952667713
0.8267572522163391 -0.06506720930337906 0.03374361991882324
3.676487445831299 -1.9895281791687012 0.1985996961593628
1.5994176864624023 -2.0783865451812744 0.11312773823738098
0.7584572434425354 0.26873278617858887 0.023460011929273605
0.8314922451972961 -0.06850720942020416 0.033946894109249115
3.6515750885009766 -1.9933844804763794 0.19910281896591187
1.6099199056625366 -2.1079742908477783 0.11673535406589508
0.7547351717948914 0.264304518699646 0.022756021469831467
0.8312355279922485 -0.07155431807041168 0.033946894109249115
3.6303913593292236 -2.0007781982421875 0.1991092413663864
1.6164743900299072 -2.134263515472412 0.11970370262861252
0.7557100057601929 0.26154035329818726 0.022337310016155243
0.8309617638587952 -0.07459993660449982 0.034092508256435394
3.6061818599700928 -2.0030550956726074 0.2003096342086792
1.6149675846099854 -2.147810220718384 0.12202643603086472
0.7566708326339722 0.25877127051353455 0.022058164700865746
0.8257086277008057 -0.07718012481927872 0.03388836234807968
3.5769400596618652 -2.004002809524536 0.20124390721321106
1.6100072860717773 -2.1576318740844727 0.12460261583328247
0.7624087929725647 0.257468044757843 0.021634241566061974
0.8453218340873718 -0.08213981986045837 0.034408487379550934
3.568835973739624 -2.0183281898498535 0.201959490776062
1.6191059350967407 -2.188096046447754 0.12789000570774078
0.7680957913398743 0.2562561631202698 0.02148597314953804
0.8300971984863281 -0.08373274654150009 0.033946894109249115
3.544645309448242 -2.020190477371216 0.20382389426231384
1.6206601858139038 -2.2054543495178223 0.13050472736358643
0.7595426440238953 0.2503126263618469 0.020941557362675667
0.8248159885406494 -0.0862550362944603 0.03374361991882324
3.537123918533325 -2.0331151485443115 0.20596010982990265
1.6183830499649048 -2.2193570137023926 0.1333780735731125
0.7604618072509766 0.2475292980670929 0.020662399008870125
0.8344219923019409 -0.09035254269838333 0.03429665416479111
3.5331592559814453 -2.0497488975524902 0.20835095643997192
1.6269493103027344 -2.2500216960906982 0.1372562050819397
0.7660433650016785 0.24653968214988708 0.020510636270046234
0.83408522605896 -0.09341024607419968 0.03429665416479111
3.534933567047119 -2.0664761066436768 0.20957502722740173
1.6281747817993164 -2.26751446723938 0.13945844769477844
0.7574213147163391 0.240704745054245 0.019978424534201622
0.8188432455062866 -0.09474339336156845 0.03382808342576027
3.5315420627593994 -2.0818979740142822 0.21197713911533356
1.6342699527740479 -2.293701171875 0.14316363632678986
0.7631577849388123 0.23915915191173553 0.019824909046292305
0.833372175693512 -0.09952113777399063 0.03444314002990723
3.536667823791504 -2.1024250984191895 0.21490603685379028
1.6373096704483032 -2.3158819675445557 0.14665409922599792
0.7639532685279846 0.2366291582584381 0.019545741379261017
3.541689395904541 -2.1230170726776123 0.21785056591033936
1.6402064561843872 -2.3381123542785645 0.15017931163311005
0.7553484439849854 0.23064491152763367 0.018750056624412537
3.5459229946136475 -2.1449503898620605 0.21936415135860443
1.6393001079559326 -2.3568878173828125 0.1529712826013565
0.7561153769493103 0.2281406968832016 0.01847437024116516
