# .PCD v0.7 - Point Cloud Data file format
VERSION 0.7
FIELDS x y z
SIZE 4 4 4
TYPE F F F
COUNT 1 1 1
WIDTH 826
HEIGHT 1
VIEWPOINT 0 0 0 1 0 0 0
POINTS 826
DATA ascii
6.968651294708252 -1.1661522388458252 -0.7937772274017334
2.371283769607544 -1.5665444135665894 -0.21319334208965302
1.1441236734390259 -1.789704442024231 -0.05970422178506851
4.656452178955078 3.8412139415740967 -0.7272714376449585
3.4150118827819824 0.8984602093696594 -0.45173370838165283
6.787682056427002 -1.1626784801483154 -0.7748835682868958
2.3697690963745117 -1.5780503749847412 -0.21207666397094727
1.1349177360534668 -1.7897248268127441 -0.05697464570403099
4.654546737670898 3.81105899810791 -0.7311791777610779
3.418283700942993 0.885301411151886 -0.45296627283096313
6.641572952270508 -1.1627238988876343 -0.7574934959411621
2.3596746921539307 -1.5844403505325317 -0.20972101390361786
1.1340187788009644 -1.8021860122680664 -0.055013637989759445
4.652580738067627 3.781049966812134 -0.73399817943573
3.430502414703369 0.8763372898101807 -0.4567106366157532
6.510225296020508 -1.1643376350402832 -0.7418256998062134
2.3663618564605713 -1.6015450954437256 -0.20883004367351532
1.1221425533294678 -1.797897458076477 -0.0525360107421875
4.6117329597473145 3.7198708057403564 -0.7316965460777283
3.453226327896118 0.8667498230934143 -0.46051207184791565
6.359320163726807 -1.1625651121139526 -0.7228487730026245
2.372955083847046 -1.6187200546264648 -0.20791804790496826
1.1129519939422607 -1.7978088855743408 -0.04945986717939377
3.450955867767334 0.8540252447128296 -0.4623526930809021
6.247227191925049 -1.1668798923492432 -0.7117345929145813
2.3629562854766846 -1.6246222257614136 -0.20655614137649536
1.0985305309295654 -1.7891325950622559 -0.047276973724365234
4.067172050476074 3.230541467666626 -0.6533998847007751
3.4736170768737793 0.8442078232765198 -0.46617990732192993
6.101476192474365 -1.1628152132034302 -0.6945127248764038
2.3571035861968994 -1.633353590965271 -0.20455414056777954
1.0789910554885864 -1.7718408107757568 -0.044541746377944946
4.065820217132568 3.207536220550537 -0.6551433205604553
3.4953649044036865 0.837227463722229 -0.47127559781074524
6.1119256019592285 -1.1880379915237427 -0.6950928568840027
2.3594250679016113 -1.6477950811386108 -0.20275430381298065
1.0857524871826172 -1.797034740447998 -0.04251331463456154
4.065201282501221 3.1829440593719482 -0.6595690250396729
3.512869358062744 0.8271709084510803 -0.47448545694351196
6.127120494842529 -1.2132024765014648 -0.6984019875526428
2.3575637340545654 -1.6593836545944214 -0.20109303295612335
1.0894588232040405 -1.8181920051574707 -0.0406985729932785
4.076936721801758 3.166957378387451 -0.6640744805335999
5.288275718688965 1.2238115072250366 -0.7155782580375671
6.122222900390625 -1.2389051914215088 -0.6962215900421143
2.359424591064453 -1.6742780208587646 -0.19976912438869476
4.225407123565674 3.2575278282165527 -0.6919891834259033
5.277737617492676 1.2010101079940796 -0.7173967361450195
6.1175217628479 -1.261311411857605 -0.6973118185997009
2.3533570766448975 -1.6829750537872314 -0.1982542723417282
4.271036148071289 3.2701809406280518 -0.7034106254577637
5.214104175567627 1.1654903888702393 -0.711929440498352
2.3472845554351807 -1.6916698217391968 -0.19623437523841858
4.326494216918945 3.2863686084747314 -0.7152835130691528
5.25682258605957 1.1548255681991577 -0.7190915942192078
2.361361503601074 -1.7149999141693115 -0.19588865339756012
4.326035499572754 3.2610855102539062 -0.7189992070198059
5.323824405670166 1.1481341123580933 -0.7305511832237244
4.015602111816406 -0.8740746378898621 -0.4573378562927246
2.355142116546631 -1.7237035036087036 -0.19436053931713104
3.2657594680786133 2.4431002140045166 -0.5470824241638184
5.444039821624756 1.152201771736145 -0.7503900527954102
3.959002733230591 -0.876964807510376 -0.45125478506088257
2.3528783321380615 -1.735325574874878 -0.19367225468158722
1.6561604738235474 -2.905914783477783 -0.04261716827750206
3.270329236984253 2.427875518798828 -0.5499723553657532
5.535292148590088 1.1503345966339111 -0.7643911838531494
3.887815475463867 -0.8768700957298279 -0.4428170621395111
2.3546459674835205 -1.7499897480010986 -0.1917731612920761
1.6479792594909668 -2.9163553714752197 -0.03917302191257477
4.143763065338135 3.053929090499878 -0.7005505561828613
3.821608781814575 -0.8766693472862244 -0.43563923239707947
2.344022512435913 -1.7561066150665283 -0.18940232694149017
1.637811541557312 -2.9221298694610596 -0.035080477595329285
4.154134273529053 3.0381405353546143 -0.7077372074127197
3.7503914833068848 -0.8755039572715759 -0.42858144640922546
2.341578960418701 -1.7677122354507446 -0.18921291828155518
1.631961703300476 -2.9368793964385986 -0.03225318714976311
4.164639472961426 3.0224573612213135 -0.7131263017654419
3.533621311187744 0.6939094066619873 -0.49521172046661377
3.6843018531799316 -0.874327540397644 -0.4213923215866089
2.3589911460876465 -1.7944684028625488 -0.18959178030490875
1.6115493774414062 -2.9253475666046143 -0.029146626591682434
4.235150337219238 3.049994468688965 -0.7307096123695374
3.5648956298828125 0.6864907145500183 -0.5024670362472534
3.6372294425964355 -0.877922773361206 -0.4183744490146637
2.348489999771118 -1.8001068830490112 -0.18823972344398499
1.6008304357528687 -2.931259870529175 -0.02564910613000393
4.21761417388916 3.0384833812713623 -0.7361027002334595
3.6268556118011475 -0.8754187822341919 -0.42377573251724243
2.3479650020599365 -1.800355076789856 -0.19237108528614044
1.598420262336731 -2.926846504211426 -0.029102995991706848
4.194312572479248 3.0462281703948975 -0.7303807139396667
3.721829652786255 0.7308685779571533 -0.5317090153694153
3.687675714492798 -0.8758081793785095 -0.433854877948761
2.3503618240356445 -1.788551688194275 -0.19617074728012085
1.6110148429870605 -2.9255852699279785 -0.03439284861087799
4.167342662811279 3.0500338077545166 -0.7257876992225647
5.539381980895996 1.1098942756652832 -0.7939825654029846
3.7678046226501465 -0.8802623152732849 -0.44700488448143005
2.3447377681732178 -1.770739197731018 -0.19927939772605896
1.611991047859192 -2.9021332263946533 -0.03882221877574921
3.8144943714141846 -0.8757380843162537 -0.4542185366153717
2.33906888961792 -1.7530328035354614 -0.20132552087306976
1.5781114101409912 -2.8179209232330322 -0.04227939248085022
3.254411220550537 2.4204657077789307 -0.5649591088294983
5.501611709594727 1.1463404893875122 -0.7898073196411133
3.9239442348480225 -0.8857384324073792 -0.46970823407173157
2.329299211502075 -1.7324144840240479 -0.20299132168293
5.410190582275391 1.1479977369308472 -0.7772818207740784
3.9757208824157715 -0.8813961148262024 -0.4762178659439087
2.315396547317505 -1.7089296579360962 -0.20426110923290253
4.345193862915039 3.279096841812134 -0.749557614326477
5.35317325592041 1.1554412841796875 -0.7677156329154968
4.051461219787598 -0.8826206922531128 -0.4871002733707428
2.301353931427002 -1.6855703592300415 -0.20547844469547272
4.289617538452148 3.26308274269104 -0.7382927536964417
5.27131986618042 1.1589748859405518 -0.7566094398498535
2.291205883026123 -1.6652694940567017 -0.2070077806711197
4.258477687835693 3.264103651046753 -0.7302178144454956
5.247554779052734 1.175852656364441 -0.7519558072090149
2.3017702102661133 -1.6588679552078247 -0.2098482847213745
1.0567761659622192 -1.8084558248519897 -0.041680946946144104
4.226611137390137 3.2655181884765625 -0.7240499258041382
5.224105358123779 1.1897644996643066 -0.7491861581802368
6.112350940704346 -1.2602452039718628 -0.7430797219276428
2.319242238998413 -1.6598023176193237 -0.21394139528274536
1.065277099609375 -1.8092036247253418 -0.044345516711473465
4.039060592651367 3.1443228721618652 -0.6902519464492798
5.229146480560303 1.2120511531829834 -0.7505710124969482
6.111896991729736 -1.2357052564620972 -0.7457535862922668
2.361710548400879 -1.6771397590637207 -0.22034107148647308
1.07442045211792 -1.809530258178711 -0.04738954082131386
4.032338619232178 3.161757230758667 -0.6873430013656616
5.2152838706970215 1.2289971113204956 -0.7473158240318298
6.1162567138671875 -1.2132703065872192 -0.7468418478965759
2.388091564178467 -1.6827412843704224 -0.2242768555879593
1.0810104608535767 -1.8055216073989868 -0.050327882170677185
4.017396450042725 3.173886775970459 -0.681317150592804
5.210779190063477 1.24907386302948 -0.7454454898834229
6.1107401847839355 -1.187807559967041 -0.7489122152328491
2.373622417449951 -1.6595598459243774 -0.2253963202238083
1.0950262546539307 -1.8145297765731812 -0.05290590599179268
4.0405426025390625 3.2174484729766846 -0.6827459931373596
5.2011332511901855 1.2678996324539185 -0.7447565197944641
6.207443714141846 -1.1830103397369385 -0.7624651789665222
2.3508896827697754 -1.6308702230453491 -0.22467821836471558
1.0990320444107056 -1.8061695098876953 -0.05573325231671333
4.063800811767578 3.260378837585449 -0.6859151124954224
6.343292236328125 -1.1836775541305542 -0.7820156812667847
2.34433913230896 -1.6136305332183838 -0.22648441791534424
1.1029942035675049 -1.7978092432022095 -0.058178409934043884
6.4402241706848145 -1.177355408668518 -0.7945877909660339
2.3665695190429688 -1.6161807775497437 -0.23007173836231232
1.1118533611297607 -1.7981375455856323 -0.06089920923113823
4.6860527992248535 3.817767381668091 -0.7839542031288147
3.4979307651519775 0.894862949848175 -0.4997250735759735
6.62045431137085 -1.184051752090454 -0.817448616027832
2.3598992824554443 -1.5989735126495361 -0.23185661435127258
1.1210402250289917 -1.7982267141342163 -0.06363212317228317
4.673789024353027 3.833632469177246 -0.7797342538833618
3.4804978370666504 0.9040075540542603 -0.49578577280044556
6.741945743560791 -1.1802958250045776 -0.8331220746040344
2.3656091690063477 -1.5902225971221924 -0.23384664952754974
1.1249219179153442 -1.7898075580596924 -0.06606479734182358
4.660333633422852 3.85125470161438 -0.7734036445617676
3.4627997875213623 0.9136182069778442 -0.4924870431423187
6.921959400177002 -1.1844356060028076 -0.8597742915153503
2.3629257678985596 -1.5758756399154663 -0.23600336909294128
1.1337926387786865 -1.7900221347808838 -0.06880973279476166
4.668792724609375 3.8885111808776855 -0.7729686498641968
3.4449124336242676 0.9230614900588989 -0.49044352769851685
7.3907928466796875 -1.2367944717407227 -0.9214214086532593
2.356081962585449 -1.5588653087615967 -0.23673363029956818
1.1456716060638428 -1.7941951751708984 -0.07210671156644821
4.67402458190918 3.9219725131988525 -0.7707993984222412
3.4512312412261963 0.9383255839347839 -0.4905574321746826
2.3615708351135254 -1.5500823259353638 -0.23969192802906036
1.149479627609253 -1.785696029663086 -0.0749027356505394
4.67218542098999 3.9483025074005127 -0.7673415541648865
3.433854341506958 0.9464859366416931 -0.4866541922092438
2.363189458847046 -1.5381938219070435 -0.24123774468898773
1.1559737920761108 -1.7814044952392578 -0.07712660729885101
3.439732551574707 0.9629796147346497 -0.48676103353500366
8.6345796585083 -1.3444201946258545 -1.079160451889038
2.3644843101501465 -1.5267281532287598 -0.2427765429019928
1.1621248722076416 -1.7772663831710815 -0.08009163290262222
3.455578565597534 0.9804363250732422 -0.48820772767066956
8.507030487060547 -1.291123867034912 -1.064116358757019
2.365654230117798 -1.5152270793914795 -0.24528886377811432
1.1658345460891724 -1.7687524557113647 -0.08212161809206009
3.442348003387451 0.990979790687561 -0.48623573780059814
2.3583621978759766 -1.4983948469161987 -0.24691025912761688
1.172253131866455 -1.7643828392028809 -0.08470968157052994
3.462120294570923 1.011738896369934 -0.4895983636379242
2.3636550903320312 -1.4896254539489746 -0.2493484914302826
1.181117057800293 -1.764331579208374 -0.08787407726049423
7.0269012451171875 2.0801291465759277 -0.9908278584480286
7.841765403747559 -1.100692629814148 -0.987721860408783
2.3605053424835205 -1.4755803346633911 -0.2504030168056488
1.1903001070022583 -1.7640281915664673 -0.09105224907398224
8.504120826721191 -1.160383701324463 -1.0751450061798096
2.3577942848205566 -1.4607552289962769 -0.2514435648918152
1.1945067644119263 -1.7550265789031982 -0.09306172281503677
3.796565055847168 3.381427764892578 -0.6053409576416016
6.594710826873779 2.006140947341919 -0.9258589148521423
8.222886085510254 -1.091325044631958 -1.040547490119934
2.345686435699463 -1.4419474601745605 -0.2525213956832886
1.1974307298660278 -1.7468408346176147 -0.09543026238679886
3.6969950199127197 3.3147950172424316 -0.5868203639984131
6.880554676055908 2.1219944953918457 -0.9671265482902527
7.921774864196777 -1.020424485206604 -1.003356695175171
2.355055570602417 -1.4358400106430054 -0.25490373373031616
1.206282615661621 -1.746648907661438 -0.09861929714679718
3.6372921466827393 3.2853925228118896 -0.5749146342277527
6.934708118438721 2.1665616035461426 -0.9719754457473755
7.831414222717285 -0.9796186089515686 -0.9956483244895935
2.3729686737060547 -1.4348574876785278 -0.25773605704307556
3.5815882682800293 3.2589945793151855 -0.5628541707992554
6.846338272094727 2.1678414344787598 -0.9581975340843201
7.623358249664307 -0.9238777756690979 -0.9687389135360718
2.395557165145874 -1.435415506362915 -0.26251158118247986
3.5657482147216797 3.2696967124938965 -0.5580552220344543
6.758588790893555 2.1673433780670166 -0.9432395100593567
7.429458141326904 -0.8727607131004333 -0.9450125694274902
2.4215376377105713 -1.4400913715362549 -0.26681825518608093
1.8277226686477661 -2.5852103233337402 -0.15816932916641235
3.5468690395355225 3.2763967514038086 -0.5518531203269958
6.675259113311768 2.1689231395721436 -0.9290256500244141
7.521307945251465 -0.8542853593826294 -0.9576137065887451
2.4351727962493896 -1.436144471168518 -0.2702282965183258
1.8197027444839478 -2.5539565086364746 -0.15995648503303528
3.5145068168640137 3.2681682109832764 -0.544258713722229
7.7166666984558105 -0.8464754819869995 -0.9834423661231995
2.4533958435058594 -1.4342231750488281 -0.27363961935043335
1.8255797624588013 -2.54337215423584 -0.16352680325508118
3.491971492767334 3.271160364151001 -0.5383931398391724
6.433516502380371 2.143888235092163 -0.8939827084541321
7.788431167602539 -0.8254694938659668 -0.99497389793396
2.4675800800323486 -1.4292556047439575 -0.27658894658088684
1.7536648511886597 -2.422592878341675 -0.1604001373052597
3.42976975440979 3.2365753650665283 -0.5256279110908508
6.467953681945801 2.182992458343506 -0.8962900042533875
7.475570201873779 -0.7632954716682434 -0.9559571146965027
2.4979817867279053 -1.4358232021331787 -0.2819996178150177
1.738061785697937 -2.3843517303466797 -0.16134783625602722
3.439256191253662 3.2705838680267334 -0.524809718132019
6.4179816246032715 2.19236159324646 -0.8880645036697388
7.478317737579346 -0.7358910441398621 -0.9559571146965027
2.5165252685546875 -1.4330731630325317 -0.28548258543014526
1.709061861038208 -2.324904441833496 -0.161324143409729
6.391212463378906 2.2106575965881348 -0.881926953792572
7.624121189117432 -0.7206916213035583 -0.9755925536155701
2.556499719619751 -1.4428659677505493 -0.2914562523365021
6.4022216796875 2.240771770477295 -0.8809618353843689
7.428797245025635 -0.6747662425041199 -0.9529220461845398
2.5653884410858154 -1.4366865158081055 -0.2945162355899811
2.2928123474121094 2.227327823638916 -0.34387069940567017
6.417374610900879 2.2737720012664795 -0.880617082118988
2.592203140258789 -1.4392483234405518 -0.2990778982639313
1.640020728111267 -2.1827151775360107 -0.16220292448997498
2.2706332206726074 2.2220160961151123 -0.3389592170715332
6.414757251739502 2.2968156337738037 -0.8788800835609436
7.833712577819824 -0.6536847949028015 -1.005614995956421
2.606039047241211 -1.4344595670700073 -0.3016391396522522
1.6509190797805786 -2.180532217025757 -0.16536365449428558
2.255643367767334 2.223590135574341 -0.3345816135406494
6.410696983337402 2.3231711387634277 -0.8783297538757324
7.875078201293945 -0.6280806064605713 -1.0148273706436157
2.633082151412964 -1.4361993074417114 -0.30730223655700684
1.6587584018707275 -2.174281120300293 -0.16918227076530457
2.237139940261841 2.221575975418091 -0.3297044634819031
6.397237777709961 2.347388744354248 -0.8729338645935059
7.739175796508789 -0.5846284031867981 -0.9969898462295532
2.655686855316162 -1.4359244108200073 -0.3109215199947357
1.6909373998641968 -2.199695348739624 -0.1745576411485672
2.2042274475097656 2.2057669162750244 -0.32279884815216064
6.407890319824219 2.3767096996307373 -0.8730894923210144
7.696575164794922 -0.5530475974082947 -0.9926031231880188
2.682657241821289 -1.4378254413604736 -0.31560763716697693
1.689690113067627 -2.181478261947632 -0.17698706686496735
2.204106569290161 2.220323085784912 -0.3210984468460083
6.408851623535156 2.4038238525390625 -0.8707727789878845
7.663825988769531 -0.5238110423088074 -0.9881376624107361
2.705580711364746 -1.4367661476135254 -0.3192744553089142
1.706386685371399 -2.187221050262451 -0.18085235357284546
2.1989009380340576 2.232935667037964 -0.3183273375034332
6.417700290679932 2.4378557205200195 -0.8697023987770081
7.601531028747559 -0.4889044761657715 -0.9798447489738464
2.7287330627441406 -1.4350478649139404 -0.3235001564025879
1.6903190612792969 -2.1487839221954346 -0.1820676475763321
2.177762269973755 2.2261881828308105 -0.31358861923217773
6.423038959503174 2.466859817504883 -0.8679850697517395
7.52398157119751 -0.45491427183151245 -0.970953643321991
2.795452356338501 -1.4570811986923218 -0.33355608582496643
1.6515841484069824 -2.083780527114868 -0.17986856400966644
2.0485002994537354 2.109463691711426 -0.29297664761543274
6.414812088012695 2.4894297122955322 -0.8643823862075806
7.6593523025512695 -0.433588445186615 -0.9882007837295532
2.791532039642334 -1.4426685571670532 -0.33414921164512634
2.0831973552703857 2.159475564956665 -0.29525983333587646
6.419920444488525 2.5185248851776123 -0.8626412153244019
8.274796485900879 -0.44090497493743896 -1.0674101114273071
2.8098676204681396 -1.439119815826416 -0.33793941140174866
1.6158251762390137 -2.009681224822998 -0.18032048642635345
2.0953328609466553 2.1895782947540283 -0.2955531179904938
6.406009674072266 2.5414934158325195 -0.8584122061729431
8.201905250549316 -0.4025750458240509 -1.0606948137283325
2.82865834236145 -1.4344396591186523 -0.3423038125038147
1.6331819295883179 -2.0146539211273193 -0.18408280611038208
2.087505578994751 2.1974663734436035 -0.29237931966781616
6.410884857177734 2.5706627368927 -0.8566498756408691
8.247723579406738 -0.3745269179344177 -1.067900538444519
2.8643250465393066 -1.4406055212020874 -0.3477383553981781
1.6460169553756714 -2.0167784690856934 -0.18797139823436737
6.415039539337158 2.6009654998779297 -0.8560798168182373
8.234237670898438 -0.3422375023365021 -1.0659763813018799
2.88791561126709 -1.437345027923584 -0.3521469831466675
1.6630836725234985 -2.021791934967041 -0.19270718097686768
2.00065541267395 2.1364517211914062 -0.2766784131526947
6.4104695320129395 2.626511335372925 -0.8530662655830383
8.240281105041504 -0.3151193857192993 -1.066617727279663
2.923586368560791 -1.4430221319198608 -0.35879048705101013
1.6696710586547852 -2.0161354541778564 -0.19499167799949646
1.9726709127426147 2.122103691101074 -0.2708211839199066
6.409918308258057 2.6550753116607666 -0.850655734539032
8.256298065185547 -0.2839880883693695 -1.0685420036315918
2.9510085582733154 -1.4431304931640625 -0.3632452189922333
1.6769176721572876 -2.0098440647125244 -0.1977328658103943
1.9759154319763184 2.139780044555664 -0.2696756422519684
6.377662658691406 2.669142246246338 -0.8439934849739075
8.212349891662598 -0.2509099543094635 -1.0656375885009766
2.987664222717285 -1.4468673467636108 -0.3688301742076874
1.6873239278793335 -2.0073142051696777 -0.20131336152553558
1.9682807922363281 2.1472489833831787 -0.2661170959472656
6.387000560760498 2.6992883682250977 -0.8427865505218506
8.193387031555176 -0.22027547657489777 -1.0630650520324707
3.0241341590881348 -1.4508696794509888 -0.37445148825645447
1.70741868019104 -2.0161707401275635 -0.20561109483242035
1.926299810409546 2.1184608936309814 -0.2590694725513458
6.390347003936768 2.7309885025024414 -0.8397449851036072
8.18928050994873 -0.18584077060222626 -1.0624220371246338
3.0385546684265137 -1.4428118467330933 -0.3790836036205292
1.7217830419540405 -2.0166616439819336 -0.21008963882923126
6.394851207733154 2.759351968765259 -0.837897777557373
8.184894561767578 -0.15858708322048187 -1.0617789030075073
3.0704257488250732 -1.4448325634002686 -0.38362783193588257
1.7510823011398315 -2.037259101867676 -0.21519838273525238
1.8752473592758179 2.091465711593628 -0.24823065102100372
6.389647006988525 2.784930467605591 -0.8348455429077148
8.21023178100586 -0.12754333019256592 -1.06499445438385
3.097971200942993 -1.4439494609832764 -0.3888224959373474
1.7746756076812744 -2.049464225769043 -0.22050699591636658
1.8545228242874146 2.0836663246154785 -0.24306240677833557
6.38790225982666 2.814737558364868 -0.8323798775672913
8.220610618591309 -0.09326387196779251 -1.0662806034088135
3.130875587463379 -1.4433534145355225 -0.39401862025260925
1.7827355861663818 -2.0421488285064697 -0.22334587574005127
1.9130066633224487 2.1653048992156982 -0.24871763586997986
6.392045974731445 2.8432488441467285 -0.8304930925369263
8.210957527160645 -0.06592321395874023 -1.06499445438385
3.157919406890869 -1.4431424140930176 -0.39988744258880615
1.7952336072921753 -2.0441908836364746 -0.22654123604297638
6.391167163848877 2.8709640502929688 -0.8267806768417358
8.171113014221191 -0.03422727808356285 -1.0627018213272095
3.2259018421173096 -1.461297869682312 -0.40913283824920654
1.8190356492996216 -2.0560457706451416 -0.23196986317634583
6.39405632019043 2.90181827545166 -0.8248620629310608
1.8463120460510254 -2.0715272426605225 -0.23691751062870026
6.389305591583252 2.9252524375915527 -0.821766197681427
1.9235855340957642 -2.142366409301758 -0.2493675798177719
6.383568286895752 2.950974702835083 -0.8174374103546143
6.6294684410095215 0.0451260581612587 -0.8586844205856323
3.578123092651367 -1.5721760988235474 -0.4577351212501526
2.001445770263672 -2.2127137184143066 -0.26103144884109497
6.386078357696533 2.9819490909576416 -0.815479040145874
6.589293479919434 0.06900544464588165 -0.8558467030525208
3.5607268810272217 -1.5489871501922607 -0.45821577310562134
2.120023488998413 -2.3266103267669678 -0.2792578935623169
6.402577877044678 3.0182859897613525 -0.8139857649803162
6.56419038772583 0.09395113587379456 -0.8526268005371094
3.5618669986724854 -1.5332454442977905 -0.4596603512763977
2.195690393447876 -2.391981363296509 -0.29149553179740906
1.8121591806411743 2.1558237075805664 -0.2216469645500183
6.418236255645752 3.0558431148529053 -0.8136911392211914
6.56890869140625 0.11810127645730972 -0.8521241545677185
3.558105707168579 -1.51619291305542 -0.46050843596458435
2.221102476119995 -2.4019339084625244 -0.2977280020713806
1.8048195838928223 2.162371873855591 -0.21771445870399475
6.426618576049805 3.0860183238983154 -0.8097445368766785
3.5588419437408447 -1.5011181831359863 -0.4619397222995758
2.236464738845825 -2.4008336067199707 -0.3020704686641693
1.7842803001403809 2.153761148452759 -0.21373246610164642
6.414432048797607 3.1119143962860107 -0.8072559237480164
6.483541965484619 0.16638046503067017 -0.8411912322044373
3.559774398803711 -1.4854371547698975 -0.46336570382118225
2.2484748363494873 -2.3960580825805664 -0.3053964078426361
1.7800365686416626 2.1639702320098877 -0.21166832745075226
6.394017219543457 3.132396697998047 -0.8011603355407715
6.131126880645752 0.1798255741596222 -0.7944597005844116
3.564970016479492 -1.4722871780395508 -0.4653852880001068
2.267242670059204 -2.3983802795410156 -0.31081700325012207
1.7687238454818726 2.1671247482299805 -0.20787429809570312
6.610161781311035 3.268381118774414 -0.8245254755020142
6.551639080047607 0.21734024584293365 -0.8490506410598755
3.5657002925872803 -1.456587553024292 -0.46747544407844543
2.2860898971557617 -2.4006309509277344 -0.3156950771808624
1.7892004251480103 2.2086901664733887 -0.20724058151245117
6.571845054626465 3.279465675354004 -0.8173462748527527
6.362644195556641 0.2344195693731308 -0.8235341906547546
3.5707876682281494 -1.4434168338775635 -0.4694921672344208
2.2980501651763916 -2.395547389984131 -0.32022497057914734
1.7882314920425415 2.222522258758545 -0.20547844469547272
6.502265930175781 3.275988817214966 -0.8025330901145935
6.331968784332275 0.25763899087905884 -0.8196858763694763
3.5670104026794434 -1.4259803295135498 -0.46895259618759155
2.292825698852539 -2.3726325035095215 -0.32060807943344116
1.7739825248718262 2.2214341163635254 -0.20178307592868805
6.437299728393555 3.272895097732544 -0.7934386730194092
6.36551570892334 0.2823769748210907 -0.8252875208854675
3.567216396331787 -1.4109206199645996 -0.47169455885887146
2.2977607250213623 -2.360365152359009 -0.3241492807865143
1.821770191192627 2.298501968383789 -0.20406025648117065
6.409332275390625 3.2854692935943604 -0.7849694490432739
3.5678319931030273 -1.3953455686569214 -0.4724216163158417
2.296114921569824 -2.340625762939453 -0.32611405849456787
6.41015625 3.3170340061187744 -0.7840752601623535
3.5771644115448 -1.38390052318573 -0.4763808846473694
2.29740309715271 -2.3248322010040283 -0.3291177749633789
6.407373905181885 3.3454232215881348 -0.778847873210907
6.1692352294921875 0.34383368492126465 -0.7970048189163208
3.577739715576172 -1.3683527708053589 -0.476433128118515
2.3092145919799805 -2.3197174072265625 -0.3324752151966095
6.408504962921143 3.375962972640991 -0.777926504611969
6.167730331420898 0.36751100420951843 -0.7980831861495972
3.563857078552246 -1.3480911254882812 -0.4766247868537903
2.3068461418151855 -2.300413131713867 -0.3349398076534271
6.413531303405762 3.410135269165039 -0.7749912738800049
3.5641262531280518 -1.3325722217559814 -0.4779965877532959
2.247899055480957 -2.2252581119537354 -0.32798439264297485
1.704698085784912 2.232881546020508 -0.18018755316734314
6.409264087677002 3.44093918800354 -0.7684347629547119
8.159069061279297 0.5505072474479675 -1.0519297122955322
3.573943614959717 -1.3199148178100586 -0.4799497127532959
1.700412392616272 2.242648124694824 -0.1775604784488678
6.4114089012146 3.4695286750793457 -0.7649213075637817
3.5782923698425293 -1.307344913482666 -0.4819445013999939
2.035902261734009 -1.986060380935669 -0.30044063925743103
1.6810877323150635 2.232499599456787 -0.17288698256015778
6.403481960296631 3.4956424236297607 -0.7603500485420227
3.5782363414764404 -1.2924787998199463 -0.48264503479003906
2.0214738845825195 -1.9575766324996948 -0.30072730779647827
1.7118569612503052 2.290786027908325 -0.17340673506259918
6.403428554534912 3.527595043182373 -0.7580771446228027
5.651153087615967 0.44376295804977417 -0.727163553237915
3.568920373916626 -1.2736436128616333 -0.48274141550064087
1.9926444292068481 -1.9155560731887817 -0.2973438501358032
1.685718297958374 2.273135185241699 -0.16862750053405762
6.395264625549316 3.553713083267212 -0.7534852623939514
5.565587520599365 0.4575745463371277 -0.7153737545013428
3.5734052658081055 -1.260498046875 -0.48406410217285156
2.1615684032440186 -2.0620336532592773 -0.3250594437122345
1.7041057348251343 2.3156206607818604 -0.16829343140125275
6.417366027832031 3.5968408584594727 -0.7524473667144775
3.568532705307007 -1.2433929443359375 -0.4854353070259094
2.010077714920044 -1.9034960269927979 -0.30416059494018555
1.6755197048187256 2.293504238128662 -0.16277821362018585
6.425612926483154 3.6339566707611084 -0.7498376965522766
5.423687934875488 0.4869138300418854 -0.6975846886634827
3.5728251934051514 -1.230222463607788 -0.48741385340690613
1.9842203855514526 -1.8652631044387817 -0.30209797620773315
1.6818681955337524 2.319998264312744 -0.16070784628391266
6.412703514099121 3.6577413082122803 -0.7446838617324829
5.575225353240967 0.5221055746078491 -0.7143478393554688
3.5728275775909424 -1.2148982286453247 -0.486774206161499
1.645094633102417 2.2851805686950684 -0.1549595147371292
6.421265602111816 3.693883180618286 -0.7420214414596558
5.5582170486450195 0.5410705208778381 -0.7143990397453308
3.5674517154693604 -1.1985011100769043 -0.4887792468070984
1.9792252779006958 -1.83342444896698 -0.3040508031845093
1.6571319103240967 2.3197858333587646 -0.15339986979961395
6.416738033294678 3.7226459980010986 -0.7378392815589905
5.561156272888184 0.5629205107688904 -0.7140579223632812
3.5718653202056885 -1.184740424156189 -0.4900929033756256
2.0222651958465576 -1.8595681190490723 -0.3125273883342743
1.6515977382659912 2.330047607421875 -0.15067778527736664
6.421328067779541 3.755328893661499 -0.7346255779266357
5.608404636383057 0.5894670486450195 -0.7194096446037292
3.5713095664978027 -1.170044183731079 -0.49075907468795776
2.0324933528900146 -1.8552709817886353 -0.31597453355789185
1.6407004594802856 2.3318841457366943 -0.14643342792987823
6.420820236206055 3.78668212890625 -0.7308958768844604
5.566884994506836 0.6057403087615967 -0.7133705019950867
3.575530767440796 -1.1562434434890747 -0.49272674322128296
1.9841786623001099 -1.7972509860992432 -0.3097556233406067
1.6693904399871826 2.3912360668182373 -0.14671339094638824
6.418942451477051 3.8203861713409424 -0.7258412837982178
5.357630729675293 0.6037952899932861 -0.685891330242157
3.5701358318328857 -1.1400623321533203 -0.4927349090576172
6.398026943206787 3.8367273807525635 -0.7209680080413818
5.385061740875244 0.6268830299377441 -0.6887310743331909
3.578886032104492 -1.1277316808700562 -0.49600642919540405
1.9856971502304077 -1.772302508354187 -0.3136066496372223
6.448452472686768 3.8991711139678955 -0.7202916145324707
5.343796253204346 0.6409931778907776 -0.6808720827102661
3.578456163406372 -1.112509846687317 -0.49535122513771057
2.0402870178222656 -1.8076343536376953 -0.3235916793346405
6.44671630859375 3.932004451751709 -0.7151294946670532
5.449601650238037 0.6758862733840942 -0.6937194466590881
3.5776054859161377 -1.09788179397583 -0.49600231647491455
2.0246706008911133 -1.7799692153930664 -0.32193729281425476
2.1315674781799316 3.1471288204193115 -0.17326956987380981
6.458127975463867 3.971513509750366 -0.7126652002334595
5.609714984893799 0.7156358361244202 -0.713412344455719
3.5768022537231445 -1.0826255083084106 -0.4973021447658539
1.9934818744659424 -1.739637851715088 -0.31924113631248474
2.139636993408203 3.1841156482696533 -0.1701766699552536
5.675902843475342 0.7472467422485352 -0.7201752662658691
3.5758306980133057 -1.068040370941162 -0.49794527888298035
2.1421961784362793 -1.8556286096572876 -0.3444746732711792
5.894338130950928 0.7990409731864929 -0.7472202181816101
3.574984550476074 -1.0528531074523926 -0.49858495593070984
1.9906597137451172 -1.7116330862045288 -0.32188621163368225
3.791182518005371 2.3892834186553955 -0.4101930260658264
5.4589619636535645 0.7613784074783325 -0.6914163827896118
3.5786519050598145 -1.0396944284439087 -0.49988579750061035
3.753279209136963 2.3846611976623535 -0.4031222462654114
5.490906715393066 0.7844052314758301 -0.6948046684265137
3.5729217529296875 -1.0231691598892212 -0.4998536705970764
1.9878718852996826 -1.6834534406661987 -0.32399922609329224
3.728092908859253 2.3878836631774902 -0.3966805338859558
5.831667900085449 0.8580260276794434 -0.7341927886009216
3.5814249515533447 -1.010741114616394 -0.5018191337585449
3.6864914894104004 2.3794260025024414 -0.39004775881767273
3.5753891468048096 -0.9949040412902832 -0.501778244972229
2.007631540298462 -1.674477219581604 -0.32979679107666016
3.6654486656188965 2.384920358657837 -0.38566672801971436
3.574235677719116 -0.9798120260238647 -0.5024020075798035
2.0364573001861572 -1.6859018802642822 -0.3358588218688965
3.660289764404297 2.4025323390960693 -0.38228532671928406
3.548344135284424 0.5613676905632019 -0.4455563724040985
3.58241605758667 -0.967951774597168 -0.5043690800666809
2.0270678997039795 -1.6656450033187866 -0.3356280028820038
3.6109707355499268 2.387331247329712 -0.3749142289161682
3.5365192890167236 0.5734245777130127 -0.4430749714374542
3.5859360694885254 -0.9541438221931458 -0.5056643486022949
1.9794119596481323 -1.6137937307357788 -0.3289744257926941
3.5726709365844727 2.3826754093170166 -0.3673974275588989
3.5344700813293457 0.5863953828811646 -0.442449688911438
3.5607335567474365 -0.9328126311302185 -0.5022560954093933
2.0775983333587646 -1.6812055110931396 -0.34663766622543335
3.527451992034912 0.5991572141647339 -0.44058796763420105
3.5687553882598877 -0.9209496378898621 -0.5042186379432678
2.037123680114746 -1.636134147644043 -0.341200590133667
6.492444038391113 4.399020671844482 -0.6585446000099182
3.5203559398651123 0.6125012040138245 -0.438105970621109
3.5624918937683105 -0.9047577381134033 -0.5041462779045105
1.9966338872909546 -1.5910412073135376 -0.335659384727478
1.8133230209350586 2.962554931640625 -0.10369642823934555
6.494661808013916 4.432019233703613 -0.6547290682792664
3.533006429672241 0.6274159550666809 -0.43867892026901245
3.560652494430542 -0.8910714387893677 -0.5047481060028076
2.0055086612701416 -1.5872682332992554 -0.3389896750450134
1.9223822355270386 3.1654958724975586 -0.1053888350725174
6.359958648681641 4.374348163604736 -0.6332665085792542
3.5258750915527344 0.6394887566566467 -0.4374467432498932
3.6123006343841553 -0.8886032700538635 -0.5115598440170288
3.528423547744751 0.6539546847343445 -0.4368000328540802
3.697265625 -0.8944627046585083 -0.5251315236091614
1.990074872970581 -1.5497889518737793 -0.3387937843799591
4.2525482177734375 2.9721391201019287 -0.4174353778362274
3.5309548377990723 0.6678192019462585 -0.4367769956588745
3.7390661239624023 -0.8900815844535828 -0.5306016802787781
3.5432848930358887 0.6842533946037292 -0.4360675811767578
3.824258327484131 -0.8948594927787781 -0.5435966849327087
6.503427505493164 4.616622447967529 -0.6262807846069336
3.560309648513794 0.7010865807533264 -0.4378335177898407
3.8566272258758545 -0.8868283033370972 -0.5477096438407898
6.511319160461426 4.658209323883057 -0.6202457547187805
3.946711778640747 -0.8923256397247314 -0.5607547760009766
6.36927604675293 4.591976642608643 -0.6014214754104614
4.032106876373291 -0.8953733444213867 -0.5738646984100342
4.103356838226318 -0.8946764469146729 -0.5827648043632507
3.286863088607788 2.406501293182373 -0.3041552007198334
5.269450664520264 1.1200562715530396 -0.6395208835601807
5.275234222412109 1.141509771347046 -0.638815701007843
6.086944103240967 -1.2793920040130615 -0.8664085865020752
2.1305744647979736 3.809091091156006 -0.06856244057416916
5.2518486976623535 1.1575770378112793 -0.6327106356620789
6.106065273284912 -1.2589492797851562 -0.8706544041633606
2.1994805335998535 -1.5968434810638428 -0.38392776250839233
2.220564126968384 3.9994163513183594 -0.06627219170331955
4.69441032409668 3.515702724456787 -0.42040497064590454
6.110787391662598 -1.236591100692749 -0.8695662021636963
2.1889798641204834 -1.577000379562378 -0.38348498940467834
4.722897052764893 3.5615437030792236 -0.41778564453125
3.510507583618164 0.8007900714874268 -0.41916102170944214
6.100917816162109 -1.2102274894714355 -0.8674941062927246
2.1948554515838623 -1.5684669017791748 -0.3848975598812103
4.730072498321533 3.5942256450653076 -0.4122892916202545
3.4641473293304443 0.8042205572128296 -0.41147497296333313
6.1008076667785645 -1.1858769655227661 -0.8657188415527344
2.2084996700286865 -1.5660208463668823 -0.38772761821746826
4.7384138107299805 3.6005637645721436 -0.40571120381355286
3.4645652770996094 0.8043175339698792 -0.4077506363391876
6.10142707824707 -1.188207745552063 -0.8581251502037048
2.2247064113616943 -1.5780963897705078 -0.38770684599876404
4.732117652893066 3.5672013759613037 -0.4071137607097626
3.5452582836151123 0.8087171316146851 -0.41559308767318726
6.117116928100586 -1.2134408950805664 -0.8575950264930725
2.1956722736358643 -1.5684717893600464 -0.38018861413002014
3.138965368270874 5.651207447052002 -0.08349597454071045
4.740994453430176 3.5467169284820557 -0.40987125039100647
5.254432201385498 1.1773937940597534 -0.6173208355903625
6.107710361480713 -1.2381877899169922 -0.8525632619857788
2.1814236640930176 -1.572135090827942 -0.3755086064338684
3.1596202850341797 5.639598846435547 -0.0891372486948967
5.268625259399414 1.1603105068206787 -0.616576611995697
6.103567600250244 -1.2606555223464966 -0.8493000864982605
2.2561097145080566 -1.638558030128479 -0.38641974329948425
5.267975807189941 1.1389766931533813 -0.6178902983665466
6.09911584854126 -1.284173607826233 -0.8460367321968079
3.293323278427124 2.407701253890991 -0.29171252250671387
5.388625144958496 1.144404649734497 -0.6325194239616394
6.482903480529785 4.703193664550781 -0.5769202709197998
4.037425994873047 -0.8817777037620544 -0.5572798848152161
6.4997687339782715 4.679163932800293 -0.5825116038322449
3.9618277549743652 -0.8812183141708374 -0.5444234609603882
6.495528697967529 4.641773223876953 -0.5848783850669861
3.8958282470703125 -0.8815358877182007 -0.5350846648216248
2.2582900524139404 -1.7054543495178223 -0.377591997385025
6.349460601806641 4.502326965332031 -0.5756997466087341
3.518911361694336 0.6922965049743652 -0.4124194383621216
3.8155016899108887 -0.8787739276885986 -0.5217293500900269
3.5212595462799072 0.6787251234054565 -0.4149231016635895
3.764019727706909 -0.8821498155593872 -0.5137757062911987
4.268045902252197 2.979645252227783 -0.3922974467277527
3.518914222717285 0.6649057865142822 -0.4137234091758728
3.688695192337036 -0.878771185874939 -0.5019100308418274
2.024489641189575 -1.5641390085220337 -0.3336322009563446
6.446756362915039 4.465610980987549 -0.5965516567230225
3.521299362182617 0.651362955570221 -0.4149734377861023
3.622835159301758 -0.8777948021888733 -0.4920797049999237
2.1438398361206055 -1.6695349216461182 -0.3524256944656372
1.8847256898880005 3.101048231124878 -0.09058889001607895
6.48319149017334 4.455774307250977 -0.6053131222724915
3.5090720653533936 0.6358086466789246 -0.4126243591308594
3.562079668045044 -0.876908540725708 -0.4823066294193268
2.0170958042144775 -1.58274245262146 -0.3293570280075073
6.4785356521606445 4.41770076751709 -0.6088696122169495
3.506455421447754 0.6214382648468018 -0.413292795419693
3.568467855453491 -0.8930273056030273 -0.4823261499404907
1.9803357124328613 -1.5656592845916748 -0.3224982023239136
6.473598480224609 4.3796610832214355 -0.6137551665306091
3.5135319232940674 0.6094187498092651 -0.41449156403541565
3.5699803829193115 -0.9079861044883728 -0.4816904067993164
2.009530782699585 -1.6013182401657104 -0.32506152987480164
6.469404220581055 4.3407063484191895 -0.6158773303031921
3.525639295578003 0.5975832343101501 -0.41564613580703735
3.5719945430755615 -0.9211205840110779 -0.4804072976112366
6.472463607788086 4.308441162109375 -0.620123565196991
3.5326340198516846 0.5854572057723999 -0.41684842109680176
3.5682668685913086 -0.9361172914505005 -0.47911959886550903
1.9827899932861328 -1.603913426399231 -0.3176557719707489
6.471212863922119 4.273463726043701 -0.6239475607872009
3.5445170402526855 0.5734516382217407 -0.41925811767578125
3.565134286880493 -0.9492751955986023 -0.476544052362442
2.046393871307373 -1.6678087711334229 -0.32601556181907654
6.432182312011719 4.213913917541504 -0.6254453659057617
3.5710489749908447 0.5643208622932434 -0.42278853058815
3.571197748184204 -0.9655893445014954 -0.47653383016586304
2.0325238704681396 -1.6695339679718018 -0.32249465584754944
3.5830788612365723 0.552128791809082 -0.4233173131942749
3.5823028087615967 -0.9826956987380981 -0.4758569598197937
2.011354684829712 -1.664528727531433 -0.31732693314552307
5.500314712524414 0.8259536027908325 -0.6514146327972412
3.578930616378784 -0.9952165484428406 -0.4752086400985718
2.1166348457336426 -1.7635136842727661 -0.3324180543422699
3.652435779571533 2.3349320888519287 -0.3609722852706909
5.488451957702637 0.8036136031150818 -0.6506379842758179
3.575242280960083 -1.0089962482452393 -0.4739118814468384
1.992250919342041 -1.672882318496704 -0.3111265003681183
3.782780885696411 2.3987739086151123 -0.37613189220428467
5.422557353973389 0.7727097868919373 -0.6434391140937805
3.576169729232788 -1.0247746706008911 -0.4725968539714813
3.8250060081481934 2.4059388637542725 -0.38342252373695374
5.582866668701172 0.7746867537498474 -0.6611226797103882
3.5819718837738037 -1.0413371324539185 -0.4719040095806122
1.9798370599746704 -1.6885515451431274 -0.3056773245334625
6.403372287750244 3.995058298110962 -0.6457158923149109
5.556158542633057 0.7492472529411316 -0.6586062908172607
3.5783679485321045 -1.0545284748077393 -0.46995076537132263
2.0680079460144043 -1.7768843173980713 -0.3178819417953491
6.433141231536865 3.9840548038482666 -0.652703583240509
5.460168361663818 0.715936541557312 -0.6488615274429321
3.5794970989227295 -1.0684551000595093 -0.469923734664917
1.9947367906570435 -1.725459098815918 -0.30469781160354614
6.439511775970459 3.953871726989746 -0.6571198105812073
5.403653621673584 0.6874315738677979 -0.6427911520004272
3.5754141807556152 -1.0828866958618164 -0.4679677188396454
1.998961091041565 -1.7438048124313354 -0.30364155769348145
6.432295799255371 3.917050361633301 -0.6602118611335754
5.366601943969727 0.6627392768859863 -0.6390473246574402
3.5856146812438965 -1.1010242700576782 -0.46852290630340576
2.033803939819336 -1.7873693704605103 -0.3075336515903473
6.348155498504639 3.833987236022949 -0.6553465127944946
5.373926639556885 0.6427045464515686 -0.6405787467956543
3.581866502761841 -1.1142557859420776 -0.46590420603752136
2.049800157546997 -1.8147858381271362 -0.30805256962776184
1.6351182460784912 2.355257272720337 -0.1266889125108719
6.3961501121521 3.831049919128418 -0.6614700555801392
5.415816783905029 0.6275892853736877 -0.6443287134170532
3.5781099796295166 -1.126800775527954 -0.4645947515964508
2.0365514755249023 -1.815138816833496 -0.3045538663864136
1.6432528495788574 2.3494253158569336 -0.12969137728214264
6.401749610900879 3.8010809421539307 -0.667083740234375
5.413139820098877 0.6062242984771729 -0.6446925401687622
3.578439474105835 -1.1427139043807983 -0.46389806270599365
2.084975481033325 -1.8733705282211304 -0.30945074558258057
1.6229970455169678 2.3024508953094482 -0.13038195669651031
6.40236234664917 3.769774913787842 -0.6709322333335876
5.4695143699646 0.592247724533081 -0.6521173715591431
3.579054117202759 -1.158072829246521 -0.4618847966194153
2.0853350162506104 -1.888215184211731 -0.30809324979782104
1.6197752952575684 2.280087947845459 -0.1323862075805664
6.402829647064209 3.7385141849517822 -0.6747595071792603
5.447168350219727 0.5686758756637573 -0.6482186913490295
3.5796549320220947 -1.1727782487869263 -0.46117928624153137
2.0712924003601074 -1.8893619775772095 -0.3040688633918762
1.6679128408432007 2.331434965133667 -0.1391981989145279
6.403153419494629 3.7073004245758057 -0.6785656809806824
5.374777317047119 0.5412116050720215 -0.6422320008277893
3.5800647735595703 -1.1881537437438965 -0.4598119258880615
2.0682477951049805 -1.9005193710327148 -0.3016667664051056
1.6675992012023926 2.3130342960357666 -0.14145685732364655
6.403332233428955 3.676133155822754 -0.6823505759239197
5.386587142944336 0.5215160250663757 -0.6443570852279663
3.5852479934692383 -1.2044798135757446 -0.4597017467021942
2.101595163345337 -1.9454171657562256 -0.3050408661365509
1.6965237855911255 2.335064649581909 -0.1462135910987854
6.404003143310547 3.6438961029052734 -0.6861143112182617
5.447671413421631 0.5072832107543945 -0.652405858039856
3.5811734199523926 -1.217038869857788 -0.4583815038204193
2.117152452468872 -1.9728953838348389 -0.3056930899620056
1.6632558107376099 2.2725508213043213 -0.14660435914993286
6.386547088623047 3.603041410446167 -0.6879886388778687
5.444520950317383 0.485910564661026 -0.6527678966522217
3.581178665161133 -1.2330987453460693 -0.4569999575614929
1.9753780364990234 -1.8556523323059082 -0.28294798731803894
1.6922272443771362 2.2944424152374268 -0.1514095515012741
6.381911754608154 3.5696539878845215 -0.691225528717041
5.678757667541504 0.48584285378456116 -0.6806334853172302
3.5767180919647217 -1.2469451427459717 -0.4543556272983551
2.0984408855438232 -1.9864792823791504 -0.2991166412830353
1.6818864345550537 2.2646617889404297 -0.1522803157567978
6.390175819396973 3.5435903072357178 -0.6958563923835754
3.5727126598358154 -1.2588517665863037 -0.4530334174633026
1.991244912147522 -1.8975627422332764 -0.2818211019039154
1.690851092338562 2.257741689682007 -0.1557265669107437
6.394690990447998 3.5140578746795654 -0.6987289786338806
3.5769827365875244 -1.2772246599197388 -0.4522322714328766
1.9802361726760864 -1.9022982120513916 -0.2784361243247986
1.6831843852996826 2.2320396900177 -0.15776397287845612
6.3852458000183105 3.4784581661224365 -0.7014223337173462
3.5724258422851562 -1.2903800010681152 -0.4509064257144928
1.8422578573226929 2.424448013305664 -0.17503882944583893
6.3931403160095215 3.4524331092834473 -0.7060148119926453
3.5816571712493896 -1.309282898902893 -0.4506780207157135
1.9951192140579224 -1.944916844367981 -0.27712273597717285
6.391556262969971 3.4228150844573975 -0.7096259593963623
6.18187952041626 0.41385120153427124 -0.7420849204063416
3.577589988708496 -1.3212615251541138 -0.44801560044288635
6.400410175323486 3.3945658206939697 -0.7141969799995422
6.1784749031066895 0.3876340985298157 -0.7425707578659058
3.576894521713257 -1.3380576372146606 -0.44659945368766785
2.306741952896118 -2.281914472579956 -0.31528881192207336
6.399263858795166 3.363964080810547 -0.7165109515190125
6.194721698760986 0.3658643364906311 -0.7443572282791138
3.58140230178833 -1.3547279834747314 -0.44642436504364014
2.3126583099365234 -2.3045997619628906 -0.31437405943870544
6.3922929763793945 3.3332910537719727 -0.719571590423584
3.5815083980560303 -1.3690778017044067 -0.44499585032463074
2.304792642593384 -2.312851905822754 -0.31152477860450745
6.40459680557251 3.308490514755249 -0.7246043682098389
3.5813887119293213 -1.3840978145599365 -0.4428918659687042
2.2965281009674072 -2.321514368057251 -0.30810531973838806
1.7689740657806396 2.2270946502685547 -0.18242789804935455
6.447338104248047 3.300689697265625 -0.7318974137306213
6.3373188972473145 0.3021860420703888 -0.7610308527946472
3.5852713584899902 -1.4021658897399902 -0.4420221447944641
2.3083741664886475 -2.3523013591766357 -0.3068970739841461
1.767651915550232 2.208759307861328 -0.18443037569522858
6.538784980773926 3.317314863204956 -0.7460646033287048
6.3330254554748535 0.27872076630592346 -0.7637546062469482
3.5758070945739746 -1.4128751754760742 -0.44078072905540466
2.3111732006073 -2.3708295822143555 -0.3053986132144928
1.7724816799163818 2.198230266571045 -0.18706227838993073
6.591006755828857 3.31204891204834 -0.7557698488235474
3.5703914165496826 -1.4273319244384766 -0.43809643387794495
2.2983973026275635 -2.376737356185913 -0.30147722363471985
1.779637098312378 2.1921873092651367 -0.19001926481723785
6.424654960632324 3.1990156173706055 -0.739142894744873
6.384721755981445 0.23188544809818268 -0.7686204314231873
3.574812889099121 -1.4435924291610718 -0.4372099041938782
1.7692961692810059 2.1616573333740234 -0.19190546870231628
6.404651641845703 3.1598145961761475 -0.7405433654785156
6.13223123550415 0.200212761759758 -0.7403039932250977
3.5738000869750977 -1.4598963260650635 -0.4357520341873169
1.7763689756393433 2.155674457550049 -0.19385558366775513
6.40310001373291 3.1285359859466553 -0.7414839863777161
3.5730409622192383 -1.4756202697753906 -0.4336141347885132
1.800057291984558 2.168179512023926 -0.19853757321834564
6.400510787963867 3.0982632637023926 -0.7461374402046204
6.798669815063477 0.1709051877260208 -0.819376528263092
3.5724036693573 -1.4907071590423584 -0.43214473128318787
1.8302099704742432 2.1881303787231445 -0.20498056709766388
6.402503490447998 3.0703139305114746 -0.7488118410110474
6.77942419052124 0.1443762183189392 -0.8169841766357422
3.576282024383545 -1.5077394247055054 -0.4312221109867096
6.404788494110107 3.04121732711792 -0.752713143825531
6.74512243270874 0.12126939743757248 -0.8127976059913635
3.571204662322998 -1.5203020572662354 -0.42918992042541504
6.384041786193848 3.0027410984039307 -0.7527122497558594
6.685866832733154 0.09219124913215637 -0.8067876100540161
3.574408769607544 -1.5386441946029663 -0.4282514452934265
1.87747323513031 -2.0438835620880127 -0.23207403719425201
