# .PCD v0.7 - Point Cloud Data file format
VERSION 0.7
FIELDS x y z
SIZE 4 4 4
TYPE F F F
COUNT 1 1 1
WIDTH 819
HEIGHT 1
VIEWPOINT 0 0 0 1 0 0 0
POINTS 819
DATA ascii
6.409215927124023 3.3023784160614014 0.018875714391469955
2.925797939300537 0.1558949500322342 -0.017386866733431816
3.5834317207336426 -1.365513801574707 -0.04015929251909256
2.253777265548706 -2.2427899837493896 -0.05272397771477699
1.8118809461593628 2.2705166339874268 0.029406551271677017
6.456907749176025 3.2970597743988037 0.015184354037046432
2.926349639892578 0.14517031610012054 -0.017386866733431816
3.588228940963745 -1.380985975265503 -0.03892192244529724
1.7857471704483032 2.2210216522216797 0.025865424424409866
6.4912614822387695 3.2846622467041016 0.01142753753811121
2.9368481636047363 0.1349024474620819 -0.01795932650566101
3.578010082244873 -1.3935692310333252 -0.037530962377786636
1.7875950336456299 2.2067084312438965 0.02329639159142971
6.561366558074951 3.2899856567382812 0.007686428260058165
2.9473140239715576 0.124559685587883 -0.01802041381597519
3.5826869010925293 -1.4090913534164429 -0.036284856498241425
2.3525679111480713 -2.391484498977661 -0.047428615391254425
1.798842191696167 2.2040271759033203 0.02135128527879715
6.604726791381836 3.2814888954162598 0.006435900926589966
2.9477767944335938 0.11324216425418854 -0.01699068769812584
3.5816750526428223 -1.4253215789794922 -0.03296799585223198
2.349966049194336 -2.408099889755249 -0.04404648765921593
1.7839323282241821 2.1710221767425537 0.018636487424373627
6.427751064300537 3.165633201599121 0.0025010567624121904
2.9381392002105713 0.1031155064702034 -0.017446208745241165
3.5815787315368652 -1.4390592575073242 -0.031663406640291214
2.3867974281311035 -2.462984085083008 -0.04250291362404823
1.7766938209533691 2.144603729248047 0.016040358692407608
6.435912609100342 3.1376140117645264 -0.002499311463907361
2.933532238006592 0.0911649689078331 -0.017416538670659065
3.5850467681884766 -1.4571945667266846 -0.030394595116376877
2.3457322120666504 -2.4401321411132812 -0.0389915369451046
1.7966142892837524 2.154069185256958 0.013707760721445084
6.429358005523682 3.105304718017578 -0.006230824626982212
2.9288454055786133 0.08027534186840057 -0.017898239195346832
3.588683843612671 -1.4747540950775146 -0.029118800535798073
2.3540537357330322 -2.4668221473693848 -0.03630390390753746
1.8141553401947021 2.158963441848755 0.010827995836734772
6.436180114746094 3.0795583724975586 -0.011207626201212406
3.5832679271698 -1.4879029989242554 -0.027087287977337837
2.3450093269348145 -2.475447177886963 -0.0345185324549675
6.424829483032227 3.0452382564544678 -0.013650210574269295
3.578322649002075 -1.4997810125350952 -0.025732943788170815
2.340237617492676 -2.4868760108947754 -0.030993131920695305
6.435940265655518 3.0216665267944336 -0.017372988164424896
3.576885223388672 -1.5160878896713257 -0.02441001497209072
2.3097827434539795 -2.4743399620056152 -0.02776700258255005
6.428831100463867 2.9896209239959717 -0.019798988476395607
3.5846221446990967 0.046925272792577744 -0.02252507209777832
3.576446056365967 -1.5299122333526611 -0.022404666990041733
2.2879788875579834 -2.467334747314453 -0.02525380440056324
1.9761215448379517 2.283712148666382 0.0015812681522220373
6.430652618408203 2.961850166320801 -0.023478126153349876
3.57487154006958 -1.5462443828582764 -0.021073875948786736
2.2611451148986816 -2.458115577697754 -0.022151555866003036
6.404048442840576 2.923894166946411 -0.02457418665289879
3.578902244567871 -1.562096357345581 -0.01840181089937687
2.2593095302581787 -2.4733924865722656 -0.018709832802414894
6.4066081047058105 2.894040822982788 -0.028220152482390404
3.5771853923797607 -1.5784724950790405 -0.016378121450543404
2.2426578998565674 -2.4750428199768066 -0.0157393217086792
6.415653705596924 2.8738930225372314 -0.03190101683139801
3.654928207397461 -0.005103245843201876 -0.022326985374093056
3.589927911758423 -1.5990897417068481 -0.015090079046785831
2.2344462871551514 -2.4824752807617188 -0.012824647128582
6.413397312164307 2.842026472091675 -0.03795461729168892
3.6448705196380615 -0.019720839336514473 -0.023538218811154366
3.5880415439605713 -1.6155415773391724 -0.014422495849430561
2.2044870853424072 -2.4690515995025635 -0.010976355522871017
6.413618564605713 2.8167169094085693 -0.040345679968595505
3.644785165786743 -0.0318075567483902 -0.023538218811154366
3.58778977394104 -1.628248691558838 -0.013065510429441929
2.1962928771972656 -2.4763545989990234 -0.008087847381830215
6.405551433563232 2.7852132320404053 -0.04144958034157753
3.649651527404785 -0.045228201895952225 -0.022296441718935966
3.590322971343994 -1.6468110084533691 -0.009651659987866879
2.187206268310547 -2.4843928813934326 -0.004621630068868399
6.407458782196045 2.755511522293091 -0.04747695103287697
3.588801622390747 -1.662061095237732 -0.008973602205514908
2.1682169437408447 -2.4810993671417236 -0.00230034370906651
6.407337665557861 2.730318069458008 -0.051055654883384705
11.017626762390137 -0.21732023358345032 -0.07116355746984482
3.5878026485443115 -1.6760703325271606 -0.007602648809552193
2.1698107719421387 -2.4996042251586914 0.0
2.075507879257202 2.2484188079833984 -0.021896714344620705
6.362020015716553 2.683497905731201 -0.050615835934877396
11.051724433898926 -0.2604483366012573 -0.06753072887659073
3.581639289855957 -1.6892107725143433 -0.004838051274418831
2.157369613647461 -2.503750801086426 0.00346098723821342
2.1279828548431396 2.2883799076080322 -0.02508883737027645
6.399453163146973 2.671701431274414 -0.056887492537498474
10.905728340148926 -0.29700514674186707 -0.0704532191157341
2.12542724609375 -2.4850404262542725 0.005707223899662495
6.432742118835449 2.6566402912139893 -0.06073668599128723
11.029504776000977 -0.3408355116844177 -0.07126042246818542
2.093219041824341 -2.4664931297302246 0.008469199761748314
6.433159828186035 2.629254102706909 -0.06307533383369446
11.058028221130371 -0.3861548602581024 -0.07145415246486664
2.070415496826172 -2.459568500518799 0.011222444474697113
6.442721366882324 2.605644941329956 -0.06671418249607086
11.04654598236084 -0.42629632353782654 -0.0713895782828331
3.587312936782837 -1.7581830024719238 0.0013945179525762796
2.0902328491210938 -2.501664400100708 0.01422438770532608
2.1677539348602295 2.26446533203125 -0.03556468337774277
6.44201135635376 2.5805342197418213 -0.07025179266929626
11.030086517333984 -0.46229758858680725 -0.07129271328449249
3.585635185241699 -1.7729099988937378 0.003490658011287451
2.0308284759521484 -2.4470136165618896 0.01609535701572895
6.429051876068115 2.5454416275024414 -0.0724123865365982
11.053290367126465 -0.5038601756095886 -0.07145415246486664
3.582960367202759 -1.789522409439087 0.005592033267021179
2.0273325443267822 -2.4628522396087646 0.019486479461193085
6.428991317749023 2.5181996822357178 -0.0759229063987732
11.051369667053223 -0.544369101524353 -0.07145415246486664
3.585935592651367 -1.805890679359436 0.007007493171840906
2.0381340980529785 -2.4927754402160645 0.02191767655313015
6.424153804779053 2.4891855716705322 -0.07936534285545349
11.034346580505371 -0.5840792059898376 -0.06750019639730453
3.5831072330474854 -1.822534441947937 0.010524323210120201
2.0060482025146484 -2.4737300872802734 0.025570543482899666
6.428109169006348 2.4649457931518555 -0.08171090483665466
11.041993141174316 -0.6270098090171814 -0.06949157267808914
3.581490993499756 -1.8366873264312744 0.011239906772971153
1.9821438789367676 -2.4608888626098633 0.027024347335100174
6.432398796081543 2.4395856857299805 -0.08405296504497528
11.044611930847168 -0.6677783131599426 -0.06952298432588577
3.5791702270507812 -1.8520965576171875 0.01336396113038063
1.9887055158615112 -2.4876444339752197 0.030017470940947533
2.2549667358398438 2.255754232406616 -0.05288977548480034
6.431863784790039 2.4124553203582764 -0.08992552012205124
11.032110214233398 -0.7076142430305481 -0.06946015357971191
3.5723512172698975 -1.8651989698410034 0.015474050305783749
1.9578039646148682 -2.4674787521362305 0.03243636712431908
2.2671260833740234 2.250567674636841 -0.05576043576002121
6.435945510864258 2.387115478515625 -0.09225619584321976
11.044408798217773 -0.7490592002868652 -0.069554403424263
3.5831778049468994 -1.8875970840454102 0.01767140068113804
2.0013134479522705 -2.5413897037506104 0.036134544759988785
2.2610809803009033 2.228172540664673 -0.05818165838718414
6.426652431488037 2.3543646335601807 -0.0955711230635643
11.046587944030762 -0.7898914217948914 -0.06765290349721909
3.5932199954986572 -1.9113534688949585 0.019889691844582558
2.0279998779296875 -2.5966556072235107 0.04025501757860184
2.27276873588562 2.223329544067383 -0.061047859489917755
6.429692268371582 2.331324577331543 -0.09788867831230164
11.033647537231445 -0.8296241164207458 -0.06759181618690491
3.581775188446045 -1.9221410751342773 0.02199365943670273
1.9694405794143677 -2.540818452835083 0.042083047330379486
2.255002498626709 2.1913630962371826 -0.06257116049528122
6.428732395172119 2.304351329803467 -0.10132136940956116
11.045485496520996 -0.8712384104728699 -0.06768345087766647
3.5797722339630127 -1.9363831281661987 0.023441387340426445
2.0036771297454834 -2.6027674674987793 0.04586575925350189
2.2917611598968506 2.2108101844787598 -0.06614583730697632
6.418648719787598 2.272962808609009 -0.1034015491604805
3.5858070850372314 -1.9566694498062134 0.02566664293408394
2.006239652633667 -2.6259517669677734 0.04902885854244232
2.2925851345062256 2.1954398155212402 -0.06870824843645096
6.422182559967041 2.247758150100708 -0.10570073872804642
10.321313858032227 -0.8921077251434326 -0.06509336829185486
3.587367296218872 -1.9746187925338745 0.026444170624017715
2.0086679458618164 -2.6492016315460205 0.0510663241147995
2.4205405712127686 2.3002212047576904 -0.07461010664701462
6.4161505699157715 2.2192835807800293 -0.10902253538370132
3.5837655067443848 -1.9914225339889526 0.029338734224438667
2.0250244140625 -2.6931614875793457 0.05528605729341507
2.4689037799835205 2.329019069671631 -0.07880064100027084
6.424205780029297 2.195739984512329 -0.11139238625764847
2.090832233428955 -2.79996395111084 0.060386259108781815
6.474801540374756 2.1865622997283936 -0.11451616883277893
2.146005153656006 -2.8959290981292725 0.06543229520320892
6.544363975524902 2.1833651065826416 -0.11921750754117966
10.451395988464355 -1.057928442955017 -0.06417099386453629
2.6326427459716797 -1.4998066425323486 0.025912588462233543
2.147188425064087 -2.919837474822998 0.06895816326141357
4.194962501525879 3.870999813079834 -0.1474778801202774
6.638087272644043 2.1863441467285156 -0.12565170228481293
10.253527641296387 -1.0758799314498901 -0.06118040904402733
2.5878396034240723 -1.4874728918075562 0.02709062770009041
2.1275956630706787 -2.9155235290527344 0.07182253897190094
4.292422771453857 3.934659242630005 -0.15552961826324463
6.59372091293335 2.144974946975708 -0.1270834058523178
10.244544982910156 -1.112913727760315 -0.06115074083209038
2.5607259273529053 -1.4844008684158325 0.028930118307471275
2.1227216720581055 -2.9313478469848633 0.07517988979816437
4.436824798583984 4.035784721374512 -0.16438943147659302
6.710965156555176 2.155947208404541 -0.13165125250816345
10.265230178833008 -1.1532442569732666 -0.06310199201107025
2.563896417617798 -1.498820424079895 0.029546191915869713
2.085679054260254 -2.90252947807312 0.07674059271812439
4.551636695861816 4.10983419418335 -0.17343991994857788
6.876002788543701 2.181196451187134 -0.13850954174995422
10.260965347290039 -1.190864086151123 -0.057693302631378174
2.506678342819214 -1.4777251482009888 0.03148861601948738
2.0923831462860107 -2.9344961643218994 0.0817878320813179
4.624678611755371 4.148029804229736 -0.1800386756658554
6.959471702575684 2.182300329208374 -0.14259129762649536
10.355603218078613 -1.242163896560669 -0.05825180187821388
2.445361375808716 -1.4536817073822021 0.03227480873465538
2.087345838546753 -2.950247287750244 0.08516854792833328
4.591207504272461 4.087742805480957 -0.18352031707763672
10.430365562438965 -1.2899281978607178 -0.06053292378783226
2.521488666534424 -1.5114717483520508 0.03386561572551727
2.070739984512329 -2.9496467113494873 0.08744899928569794
4.614948749542236 4.0757880210876465 -0.18919184803962708
10.445406913757324 -1.3306760787963867 -0.060648113489151
2.5111024379730225 -1.5189812183380127 0.03585689887404442
2.0474069118499756 -2.94144868850708 0.0907168909907341
4.587717056274414 4.023319721221924 -0.19176267087459564
6.313179969787598 1.9024550914764404 -0.1358136534690857
2.437727451324463 -1.4856603145599365 0.0363742969930172
2.037595748901367 -2.948155641555786 0.09384436160326004
4.65504789352417 4.052280426025391 -0.20042458176612854
6.3104352951049805 1.876426339149475 -0.14020392298698425
2.462066888809204 -1.5128971338272095 0.038333285599946976
2.0125958919525146 -2.934924840927124 0.09629552066326141
4.620606899261475 3.992624521255493 -0.2025781124830246
2.481987476348877 -1.5376982688903809 0.04025997966527939
1.9933428764343262 -2.929814100265503 0.09898220747709274
4.66159725189209 3.998295307159424 -0.2101699560880661
11.033641815185547 -1.5703197717666626 -0.062245097011327744
2.4678423404693604 -1.5414801836013794 0.04113778471946716
1.9853484630584717 -2.9411849975585938 0.10159918665885925
6.8932785987854 1.9662038087844849 -0.16016602516174316
11.057527542114258 -1.6150898933410645 -0.05656151846051216
2.5044496059417725 -1.5771360397338867 0.04442743584513664
1.968922734260559 -2.9400315284729004 0.10563607513904572
3.8312368392944336 3.2387924194335938 -0.17957350611686707
10.982285499572754 -1.645232915878296 -0.0600835382938385
2.502866268157959 -1.5889800786972046 0.045019909739494324
1.958092451095581 -2.9471659660339355 0.108106330037117
10.570947647094727 -1.6232473850250244 -0.05599863454699516
2.5138418674468994 -1.608905553817749 0.04740725830197334
1.9389736652374268 -2.941725015640259 0.11072291433811188
4.695459842681885 3.9107213020324707 -0.2283424288034439
5.2941813468933105 1.4473308324813843 -0.13030102849006653
10.307816505432129 -1.623378038406372 -0.05281605198979378
2.4989418983459473 -1.613546371459961 0.04880594089627266
1.9243512153625488 -2.945202589035034 0.11425012350082397
4.705723762512207 3.8901472091674805 -0.23454949259757996
5.545814037322998 1.4932607412338257 -0.13835807144641876
10.321533203125 -1.6643295288085938 -0.054742004722356796
2.493562936782837 -1.6218148469924927 0.049844272434711456
1.9118106365203857 -2.947307586669922 0.11654043942689896
4.666417598724365 3.8275861740112305 -0.23607592284679413
2.500122308731079 -1.6391520500183105 0.051660921424627304
1.895531415939331 -2.945803642272949 0.1192658543586731
4.686701774597168 3.818296194076538 -0.24068716168403625
9.980420112609863 2.612729787826538 -0.25934258103370667
7.31686544418335 -1.2323014736175537 -0.03626081347465515
2.5107576847076416 -1.659314751625061 0.053582269698381424
1.8765881061553955 -2.939988613128662 0.12240798771381378
4.681044101715088 3.785226583480835 -0.2459968626499176
9.952014923095703 2.562650442123413 -0.2619246244430542
7.193602085113525 -1.241257905960083 -0.03694846108555794
2.517124891281128 -1.6768100261688232 0.05490504205226898
1.86842679977417 -2.950995683670044 0.1250218003988266
4.687614917755127 3.760863780975342 -0.24978424608707428
7.031436920166016 -1.2398320436477661 -0.0361386314034462
2.4569761753082275 -1.6497747898101807 0.05579138174653053
1.8522247076034546 -2.949267625808716 0.12770332396030426
4.666024208068848 3.7155137062072754 -0.2531207501888275
7.041614055633545 -1.2682551145553589 -0.03496578708291054
2.500568389892578 -1.692375659942627 0.05850327014923096
1.833405613899231 -2.9431989192962646 0.13078492879867554
4.671633243560791 3.692082166671753 -0.256853848695755
7.041841983795166 -1.2949609756469727 -0.0337405800819397
2.4654152393341064 -1.6817922592163086 0.05938788503408432
1.8225452899932861 -2.949800491333008 0.1338108777999878
4.722965240478516 3.70727276802063 -0.2642483711242676
7.051553726196289 -1.3247584104537964 -0.035063523799180984
2.5045297145843506 -1.7219592332839966 0.06154308468103409
1.8038158416748047 -2.9435598850250244 0.13684773445129395
4.72515869140625 3.679760217666626 -0.2688153386116028
7.047127723693848 -1.3481359481811523 -0.033811263740062714
2.50227427482605 -1.7339495420455933 0.06376966834068298
1.790370225906372 -2.9457998275756836 0.13905632495880127
4.7265706062316895 3.653108835220337 -0.2733559310436249
6.175394058227539 1.4461514949798584 -0.1793767362833023
7.031839370727539 -1.3744946718215942 -0.03501465544104576
2.491785764694214 -1.740234136581421 0.06472588330507278
1.7769317626953125 -2.947979688644409 0.1412578672170639
4.727848052978516 3.6264946460723877 -0.2778701186180115
5.347745895385742 1.2316755056381226 -0.15712100267410278
6.737919807434082 -1.340255618095398 -0.03237399086356163
2.4690113067626953 -1.7378267049789429 0.06588095426559448
1.763474941253662 -2.9500560760498047 0.1446521133184433
4.727734565734863 3.6015686988830566 -0.28235799074172974
6.258854389190674 1.4173824787139893 -0.18485717475414276
6.620250701904297 -1.342092752456665 -0.033011022955179214
2.507455348968506 -1.778664469718933 0.06815388798713684
1.744943618774414 -2.9434990882873535 0.1470075398683548
4.725353240966797 3.571164131164551 -0.28761163353919983
6.254364967346191 1.3911410570144653 -0.1890423595905304
6.497769355773926 -1.3420755863189697 -0.03242459520697594
2.476790189743042 -1.7699403762817383 0.06961424648761749
1.7315460443496704 -2.9454567432403564 0.14977462589740753
4.734253406524658 3.550703525543213 -0.29150059819221497
5.317036151885986 1.1622179746627808 -0.1624826043844223
6.511904716491699 -1.372273564338684 -0.03136083111166954
2.47432279586792 -1.7819132804870605 0.07079292088747025
1.7131255865097046 -2.938723564147949 0.15208624303340912
5.291858673095703 1.1364084482192993 -0.16442139446735382
2.4636991024017334 -1.7880120277404785 0.07227078825235367
1.7022894620895386 -2.944890022277832 0.15446096658706665
4.113152980804443 -0.8975643515586853 -0.02130863443017006
2.4732472896575928 -1.8088178634643555 0.07381505519151688
1.6789982318878174 -2.9293246269226074 0.15627340972423553
6.259231090545654 1.2950851917266846 -0.2019873857498169
4.046384811401367 -0.8985439538955688 -0.02025621011853218
2.490723133087158 -1.835648536682129 0.07561759650707245
1.6681824922561646 -2.9353392124176025 0.15921980142593384
3.2662405967712402 2.3765485286712646 -0.21381397545337677
6.268693447113037 1.273101568222046 -0.20661106705665588
3.9504008293151855 -0.8924350142478943 -0.01979195326566696
2.4799439907073975 -1.8417690992355347 0.07657371461391449
1.6529523134231567 -2.9323208332061768 0.16168628633022308
6.512998104095459 4.702508926391602 -0.43506404757499695
6.267873287200928 1.2513071298599243 -0.20979630947113037
3.908115863800049 -0.8979499936103821 -0.02029634639620781
2.4451425075531006 -1.8298659324645996 0.07677243649959564
1.6397018432617188 -2.933900833129883 0.16379286348819733
6.486048221588135 4.645267486572266 -0.43905192613601685
6.272523403167725 1.2272098064422607 -0.21314287185668945
3.8268942832946777 -0.8940672874450684 -0.020577337592840195
2.410461902618408 -1.817732810974121 0.07694672793149948
1.6240270137786865 -2.9310286045074463 0.16623038053512573
6.49858283996582 4.618302345275879 -0.447126179933548
6.271923542022705 1.2032417058944702 -0.21743476390838623
3.760340690612793 -0.8930657505989075 -0.022260678932070732
1.6060185432434082 -2.9237539768218994 0.16723380982875824
6.506140232086182 4.623672962188721 -0.4602243900299072
6.266594886779785 1.2022194862365723 -0.2295154482126236
3.7796037197113037 -0.8983375430107117 -0.028478281572461128
1.6109106540679932 -2.932659864425659 0.16423070430755615
6.484410762786865 4.645806789398193 -0.4571521282196045
6.28168249130249 1.229001760482788 -0.2324686497449875
3.836393117904663 -0.8969927430152893 -0.03300727903842926
2.4741361141204834 -1.8664271831512451 0.07141255587339401
1.6265718936920166 -2.935621738433838 0.16120651364326477
6.499782085418701 4.692966461181641 -0.4580415189266205
6.2670769691467285 1.2511481046676636 -0.2332211136817932
3.9224724769592285 -0.9019693732261658 -0.03582677245140076
2.4650213718414307 -1.8454140424728394 0.06718984246253967
1.6398656368255615 -2.9341938495635986 0.15675322711467743
3.2692055702209473 2.3795785903930664 -0.22890006005764008
6.262369632720947 1.274093508720398 -0.23545190691947937
3.979363441467285 -0.8997079730033875 -0.03987664729356766
2.4798402786254883 -1.8423634767532349 0.06471207737922668
1.6531544923782349 -2.9326796531677246 0.15287326276302338
3.2967545986175537 2.4181652069091797 -0.23001623153686523
6.292440891265869 1.3019565343856812 -0.2344975471496582
4.055980205535889 -0.9006747007369995 -0.04278511181473732
2.4866294860839844 -1.8333014249801636 0.06147690862417221
1.6708765029907227 -2.940079689025879 0.1494223028421402
5.314233303070068 1.1218221187591553 -0.19915856420993805
2.4570631980895996 -1.7976399660110474 0.05792485550045967
1.6842149496078491 -2.9384260177612305 0.14550526440143585
5.280972957611084 1.134070873260498 -0.19805924594402313
2.4717583656311035 -1.7945197820663452 0.05598266422748566
1.7025364637374878 -2.945317268371582 0.14318037033081055
4.740335464477539 3.5565576553344727 -0.3230263888835907
6.287309169769287 1.3743040561676025 -0.2337389886379242
6.501986503601074 -1.3689982891082764 -0.07770290225744247
2.470245361328125 -1.7796316146850586 0.053142573684453964
1.7234710454940796 -2.956470251083374 0.1398405283689499
4.742706298828125 3.586880922317505 -0.32100149989128113
6.301699638366699 1.4016693830490112 -0.23559162020683289
6.550984859466553 -1.3542591333389282 -0.08173173666000366
2.460527181625366 -1.7589675188064575 0.04962620884180069
1.7343807220458984 -2.9502787590026855 0.13565948605537415
4.737647533416748 3.610427141189575 -0.31738215684890747
6.7322821617126465 -1.3660277128219604 -0.0851297453045845
2.4588232040405273 -1.7441672086715698 0.047883711755275726
1.7503379583358765 -2.9525985717773438 0.1330602765083313
4.736394882202148 3.636991262435913 -0.3150535523891449
5.429154872894287 1.2504252195358276 -0.20331630110740662
2.4938571453094482 -1.7553144693374634 0.045246001332998276
1.7663573026657104 -2.9548778533935547 0.12924183905124664
4.735692501068115 3.6628003120422363 -0.31166425347328186
2.4879963397979736 -1.7375876903533936 0.04343452304601669
1.7772444486618042 -2.948498249053955 0.12563671171665192
4.7341790199279785 3.6894407272338867 -0.3093014359474182
6.933380126953125 -1.3276301622390747 -0.0961088240146637
2.474435806274414 -1.7133806943893433 0.0399249792098999
1.791741132736206 -2.9457383155822754 0.12160678952932358
4.677591800689697 3.6729769706726074 -0.3023189604282379
6.337986469268799 1.5333201885223389 -0.23340977728366852
6.918527603149414 -1.298517107963562 -0.09706515818834305
2.4883713722229004 -1.7108498811721802 0.03742239251732826
1.8067872524261475 -2.948408842086792 0.11833816766738892
4.6400837898254395 3.6724135875701904 -0.2976975739002228
6.322347640991211 1.555257797241211 -0.2330520749092102
6.9428582191467285 -1.2767583131790161 -0.1010371521115303
2.4987711906433105 -1.7045460939407349 0.035900577902793884
1.8202725648880005 -2.94612193107605 0.1148826852440834
4.697033405303955 3.745567798614502 -0.29802554845809937
6.321492671966553 1.5796412229537964 -0.2320937067270279
6.967373371124268 -1.2536283731460571 -0.10255894064903259
1.840078353881836 -2.9516141414642334 0.11173771321773529
4.706833839416504 3.7816874980926514 -0.29424306750297546
6.330267906188965 1.6065071821212769 -0.23034794628620148
7.060530185699463 -1.243691325187683 -0.1051139235496521
2.4655840396881104 -1.6555547714233398 0.030582863837480545
1.847259283065796 -2.94136118888855 0.10793997347354889
4.693684101104736 3.7981584072113037 -0.29213544726371765
6.333730220794678 1.633297324180603 -0.23070043325424194
7.262056350708008 -1.2517645359039307 -0.11190446466207504
1.8660978078842163 -2.947317123413086 0.10536173731088638
4.722428798675537 3.850146770477295 -0.291603147983551
2.485745906829834 -1.643408179283142 0.026005076244473457
1.884507179260254 -2.953531265258789 0.10153428465127945
4.720058917999268 3.8770999908447266 -0.28698986768722534
1.8926726579666138 -2.9424889087677 0.09772573411464691
4.70596981048584 3.894500732421875 -0.28272542357444763
10.345312118530273 -1.6663113832473755 -0.16827042400836945
2.4935598373413086 -1.6224321126937866 0.022326914593577385
1.9116568565368652 -2.948197364807129 0.09446503967046738
4.711644172668457 3.926987409591675 -0.28066977858543396
5.268473148345947 1.440302848815918 -0.18691273033618927
10.346382141113281 -1.627601146697998 -0.17001813650131226
2.482701301574707 -1.60244619846344 0.019598158076405525
1.9252376556396484 -2.9454362392425537 0.09091456234455109
3.86236834526062 3.245509386062622 -0.22644159197807312
10.031027793884277 -1.5403386354446411 -0.16828565299510956
2.484358310699463 -1.5906468629837036 0.017505550757050514
1.9470635652542114 -2.955120801925659 0.08834288269281387
3.840263605117798 3.248722553253174 -0.22225739061832428
6.051563262939453 1.7021573781967163 -0.21293486654758453
2.4901790618896484 -1.5815352201461792 0.01596095785498619
1.9579395055770874 -2.948052406311035 0.0840192437171936
6.169683933258057 1.7621384859085083 -0.21509601175785065
9.003340721130371 -1.3134453296661377 -0.15722888708114624
2.4748172760009766 -1.5590789318084717 0.01327318325638771
1.9687718152999878 -2.940916061401367 0.08093084394931793
4.706533908843994 4.042544364929199 -0.2654622197151184
6.436858177185059 1.863990306854248 -0.22230546176433563
8.998167991638184 -1.279026746749878 -0.15864236652851105
2.4847607612609863 -1.552650809288025 0.0117617417126894
1.9879719018936157 -2.9461801052093506 0.07755190879106522
4.627571105957031 4.004288673400879 -0.25862452387809753
2.482480764389038 -1.5374044179916382 0.008663801476359367
2.005459785461426 -2.9465174674987793 0.07341556996107101
4.654454708099365 4.057479381561279 -0.25555849075317383
2.483842372894287 -1.5256807804107666 0.007122681010514498
2.0332486629486084 -2.963932752609253 0.07089678943157196
4.662922382354736 4.093594551086426 -0.2524673342704773
7.782273292541504 -1.019028902053833 -0.14248086512088776
2.484621524810791 -1.5148344039916992 0.0055867950432002544
2.0516321659088135 -2.9695725440979004 0.06741291284561157
4.603109836578369 4.0710554122924805 -0.24573801457881927
7.805792331695557 -0.9930222034454346 -0.14284387230873108
2.4773244857788086 -1.4979581832885742 0.003031636355444789
2.0625414848327637 -2.9620893001556396 0.06363315135240555
4.539821624755859 4.044833660125732 -0.23783476650714874
6.311169147491455 1.9536333084106445 -0.21108435094356537
7.804393768310547 -0.9637901782989502 -0.1441255807876587
2.076287269592285 -2.958646297454834 0.06056707352399826
4.502748966217041 4.04150390625 -0.23349419236183167
6.423285484313965 2.014166831970215 -0.21155144274234772
7.812924385070801 -0.9344009757041931 -0.1483372151851654
4.476937294006348 4.048062801361084 -0.22764869034290314
6.539700031280518 2.0770280361175537 -0.21563483774662018
7.831194877624512 -0.9074852466583252 -0.14861993491649628
2.545588970184326 -1.5006636381149292 -0.003094468265771866
4.43928861618042 4.045110702514648 -0.22337335348129272
6.451236724853516 2.0749921798706055 -0.21059942245483398
7.824453830718994 -0.8776531219482422 -0.15255405008792877
2.538120746612549 -1.4837523698806763 -0.0046181390061974525
1.8958771228790283 -2.639364004135132 0.04367554932832718
4.406169414520264 4.044589519500732 -0.21722480654716492
6.391022205352783 2.0827367305755615 -0.2065446823835373
7.832587242126465 -0.8495081663131714 -0.15265090763568878
2.591646671295166 -1.5011167526245117 -0.006272708531469107
1.8976792097091675 -2.619615316390991 0.04065113887190819
6.549559593200684 2.1609883308410645 -0.20830829441547394
7.840594291687012 -0.8213126063346863 -0.1541237086057663
2.609611988067627 -1.4999876022338867 -0.007880152203142643
1.9152153730392456 -2.625453233718872 0.03800367936491966
6.470559120178223 2.16125226020813 -0.20366276800632477
7.838353157043457 -0.7948087453842163 -0.15127582848072052
2.6237761974334717 -1.4953619241714478 -0.009487594477832317
1.9781438112258911 -2.6909472942352295 0.036724478006362915
6.410548210144043 2.1673569679260254 -0.20084047317504883
7.841401100158691 -0.7633295059204102 -0.15540102124214172
1.9820666313171387 -2.675678014755249 0.032546382397413254
2.3325607776641846 2.2027106285095215 -0.1064281165599823
6.421990394592285 2.196234703063965 -0.19669552147388458
7.844017505645752 -0.7359532713890076 -0.15540102124214172
1.9799131155014038 -2.652390480041504 0.029462512582540512
6.43751335144043 2.227930784225464 -0.19741973280906677
7.851559162139893 -0.7076398730278015 -0.15962737798690796
3.4967403411865234 -1.9422658681869507 -0.020245732739567757
1.980624794960022 -2.633155584335327 0.025303533300757408
2.2507681846618652 2.158409357070923 -0.09854583442211151
6.423897743225098 2.2521347999572754 -0.19371065497398376
7.844376087188721 -0.6752586960792542 -0.15942493081092834
3.491353750228882 -1.9209753274917603 -0.022951826453208923
1.9791055917739868 -2.6092658042907715 0.02229204587638378
2.265220880508423 2.186734437942505 -0.0972953513264656
6.44465970993042 2.2834396362304688 -0.19456399977207184
7.846572399139404 -0.649242103099823 -0.15942493081092834
3.5020785331726074 -1.9117746353149414 -0.025766117498278618
1.9907952547073364 -2.6066794395446777 0.018891340121626854
2.2536680698394775 2.191596508026123 -0.0943976566195488
6.44024133682251 2.311014175415039 -0.1911236196756363
7.8391194343566895 -0.616952121257782 -0.1605948954820633
3.509049654006958 -1.8989193439483643 -0.027855228632688522
1.9698519706726074 -2.5597527027130127 0.015784695744514465
2.263916254043579 2.2169907093048096 -0.09238290041685104
6.436895847320557 2.33520770072937 -0.1888730525970459
3.5468146800994873 -1.9025825262069702 -0.03020700439810753
2.015995502471924 -2.599942684173584 0.012632661499083042
2.2692711353302 2.2401504516601562 -0.09073963761329651
6.409616947174072 2.35193133354187 -0.18474674224853516
3.5714075565338135 -1.8989511728286743 -0.03247499093413353
2.016282320022583 -2.580723762512207 0.009717105887830257
2.268965005874634 2.254753351211548 -0.08879094570875168
6.410324573516846 2.378885507583618 -0.18501722812652588
11.062073707580566 -0.7502572536468506 -0.23612172901630402
3.5650479793548584 -1.8788412809371948 -0.03587127476930618
1.9607855081558228 -2.4908194541931152 0.006085958797484636
6.41023063659668 2.408170700073242 -0.1793120950460434
11.06507682800293 -0.7058505415916443 -0.23225143551826477
1.9832050800323486 -2.498596668243408 0.003340559545904398
6.392863750457764 2.425867795944214 -0.17905031144618988
11.067508697509766 -0.6652853488922119 -0.23612172901630402
1.98211669921875 -2.480289936065674 0.0
6.3835883140563965 2.450430154800415 -0.17547011375427246
11.06965446472168 -0.6285805106163025 -0.23612172901630402
2.0068719387054443 -2.4924800395965576 -0.0027925262693315744
6.435226917266846 2.497352123260498 -0.17352329194545746
11.051874160766602 -0.5869413018226624 -0.2376275211572647
3.543424367904663 -1.8007934093475342 -0.04370652511715889
2.015991449356079 -2.48510479927063 -0.005585050676018
6.449352741241455 2.5300710201263428 -0.17173327505588531
11.059039115905762 -0.5447468757629395 -0.237734854221344
2.0377392768859863 -2.493180274963379 -0.008429930545389652
2.177124500274658 2.2615768909454346 -0.0706903338432312
6.4447102546691895 2.5555455684661865 -0.17064717411994934
11.076118469238281 -0.501026451587677 -0.23805685341358185
2.050035238265991 -2.489546060562134 -0.011820215731859207
6.435382843017578 2.5791823863983154 -0.1670171022415161
11.047913551330566 -0.4591815769672394 -0.23741285502910614
2.075972557067871 -2.500520944595337 -0.015315207652747631
6.453737258911133 2.614032745361328 -0.16530904173851013
11.044379234313965 -0.4223518371582031 -0.23730552196502686
2.058593273162842 -2.462923526763916 -0.017367687076330185
6.4391069412231445 2.636932373046875 -0.16154712438583374
11.055761337280273 -0.3822118639945984 -0.2413816899061203
2.090137481689453 -2.4821181297302246 -0.020955149084329605
6.434094429016113 2.6624581813812256 -0.15801726281642914
11.032106399536133 -0.34091588854789734 -0.24083632230758667
3.185523748397827 -1.53171968460083 -0.04997321963310242
2.102442979812622 -2.478238582611084 -0.023823529481887817
2.105283260345459 2.267935037612915 -0.05725574865937233
6.401309013366699 2.67641282081604 -0.15381723642349243
11.028440475463867 -0.29456838965415955 -0.2407272458076477
3.160022497177124 -1.503869891166687 -0.051310840994119644
2.109110116958618 -2.4659624099731445 -0.026618588715791702
2.0529561042785645 2.2278859615325928 -0.05288079008460045
6.409924507141113 2.707658052444458 -0.15183159708976746
11.034443855285645 -0.2542603313922882 -0.24083632230758667
3.160966396331787 -1.4901341199874878 -0.05306731536984444
2.124645471572876 -2.4657723903656006 -0.02954103611409664
6.42392635345459 2.7387115955352783 -0.1511581391096115
3.1706438064575195 -1.4811911582946777 -0.055586401373147964
2.12994122505188 -2.4545400142669678 -0.03289889544248581
6.4276909828186035 2.7682013511657715 -0.1478184014558792
3.6336662769317627 -0.05835089832544327 -0.07929710298776627
2.1849722862243652 -2.49939227104187 -0.03650457039475441
6.412500858306885 2.7908966541290283 -0.14405103027820587
3.628857135772705 -0.04497051239013672 -0.0791880264878273
2.2007052898406982 -2.4988465309143066 -0.03952030465006828
6.4068732261657715 2.816422700881958 -0.14048956334590912
2.205643892288208 -2.4877724647521973 -0.04178208112716675
2.0267863273620605 2.278815746307373 -0.040455542504787445
6.414850234985352 2.848029851913452 -0.13721603155136108
10.05748462677002 -0.049150533974170685 -0.2194577306509018
2.218052625656128 -2.483372449874878 -0.0447506383061409
2.009310245513916 2.2743093967437744 -0.03760826215147972
6.41355562210083 2.8756415843963623 -0.13373127579689026
10.037602424621582 -0.012263250537216663 -0.21902143955230713
3.55739688873291 -1.5845991373062134 -0.0706959143280983
2.223768711090088 -2.471479654312134 -0.04758477583527565
1.980804204940796 2.259469747543335 -0.03513878583908081
6.385807991027832 2.888671398162842 -0.13090430200099945
3.5725576877593994 -1.5749410390853882 -0.07360315322875977
2.2797834873199463 -2.5151326656341553 -0.05214140564203262
6.397974967956543 2.9224705696105957 -0.12768825888633728
3.5740761756896973 0.020585428923368454 -0.07861201465129852
3.5691070556640625 -1.5578211545944214 -0.07545372098684311
2.278841972351074 -2.495650291442871 -0.05486026778817177
6.386765480041504 2.9470431804656982 -0.12400533258914948
3.538986921310425 0.03335515037178993 -0.07784238457679749
3.5655903816223145 -1.5407527685165405 -0.07661585509777069
2.2947092056274414 -2.4946036338806152 -0.0579805001616478
6.439423084259033 3.000016212463379 -0.12151960283517838
3.5138490200042725 0.04599880054593086 -0.07729265093803406
3.566580057144165 -1.5256917476654053 -0.07854840904474258
2.290210008621216 -2.471470832824707 -0.060578856617212296
6.437487602233887 3.0278797149658203 -0.11796575784683228
3.5086617469787598 0.05940624326467514 -0.07657024264335632
3.572122812271118 -1.5125985145568848 -0.07990249991416931
2.3337652683258057 -2.4991564750671387 -0.06446166336536407
6.4399495124816895 3.057913064956665 -0.11448168754577637
3.503422498703003 0.07216278463602066 -0.07646116614341736
3.568382978439331 -1.495615005493164 -0.0817224532365799
2.3257439136505127 -2.4723384380340576 -0.06695259362459183
1.790128231048584 2.1333916187286377 -0.017498554661870003
6.451293468475342 3.0923264026641846 -0.11113721877336502
3.488142490386963 0.08463921397924423 -0.07613394409418106
3.5691967010498047 -1.4805996417999268 -0.08296570926904678
2.3313100337982178 -2.460125684738159 -0.06981172412633896
1.7983050346374512 2.159158945083618 -0.015203488990664482
6.444468021392822 3.1181533336639404 -0.10746635496616364
3.574828624725342 -1.4668729305267334 -0.08431453257799149
2.326470136642456 -2.437065362930298 -0.07175204157829285
1.7808297872543335 2.154183864593506 -0.012683263048529625
6.603755474090576 3.2251482009887695 -0.10647008568048477
3.5755081176757812 -1.4518632888793945 -0.08622605353593826
2.3526670932769775 -2.4464914798736572 -0.07524632662534714
1.7983027696609497 2.1916282176971436 -0.009895997121930122
6.600891590118408 3.253767251968384 -0.10404607653617859
2.957468032836914 0.10431067645549774 -0.06405556946992874
3.5720014572143555 -1.4337632656097412 -0.08734622597694397
2.3415277004241943 -2.4154255390167236 -0.07869146764278412
1.7941887378692627 2.2014613151550293 -0.007435093633830547
6.517350196838379 3.242332696914673 -0.09910371154546738
2.9370760917663574 0.1148846372961998 -0.06310974806547165
3.576693296432495 -1.4218931198120117 -0.08936155587434769
2.339012622833252 -2.3968753814697266 -0.08067876845598221
1.8049781322479248 2.2313501834869385 -0.005510000512003899
6.478092670440674 3.253892421722412 -0.09489956498146057
2.9266247749328613 0.12522046267986298 -0.0639176070690155
3.5725183486938477 -1.4050920009613037 -0.09180953353643417
2.3407232761383057 -2.381105899810791 -0.08335176110267639
6.4316277503967285 3.257307291030884 -0.09060115367174149
2.9261574745178223 0.13594675064086914 -0.06340634822845459
3.586961030960083 -1.3956135511398315 -0.09204861521720886
2.2227792739868164 -2.2446112632751465 -0.08106514066457748
3.265554189682007 4.098018646240234 -0.0009145524818450212
6.433043003082275 3.287705183029175 -0.08700691908597946
2.920647144317627 0.1464204639196396 -0.06329815089702606
3.5782365798950195 -1.3764233589172363 -0.09436652809381485
2.2242591381073 -2.2289226055145264 -0.08410614728927612
3.2760472297668457 4.140760898590088 0.0036861347034573555
6.429876327514648 3.3158648014068604 -0.08333937078714371
2.9201016426086426 0.15712477266788483 -0.06278776377439499
3.5785393714904785 -1.361504077911377 -0.09624826163053513
2.2288177013397217 -2.2171781063079834 -0.0867161676287651
3.280099630355835 4.175756454467773 0.010194461792707443
6.439906597137451 3.3509747982025146 -0.07855922728776932
2.919506311416626 0.16782642900943756 -0.06278776377439499
3.5741171836853027 -1.3448463678359985 -0.09732997417449951
2.2297616004943848 -2.201916217803955 -0.08917516469955444
3.316284418106079 4.255356311798096 0.015065662562847137
6.43204402923584 3.3768985271453857 -0.07480959594249725
2.918851137161255 0.17903593182563782 -0.06227736920118332
3.5696210861206055 -1.3282394409179688 -0.09840467572212219
2.2199270725250244 -2.176191568374634 -0.09063432365655899
6.432911396026611 3.407489061355591 -0.0711524486541748
2.908198833465576 0.18908420205116272 -0.06206445395946503
3.5744330883026123 -1.3151353597640991 -0.09973417222499847
2.2278308868408203 -2.1679842472076416 -0.09334712475538254
6.4380598068237305 3.4404923915863037 -0.06625178456306458
2.907496929168701 0.19974274933338165 -0.06155580282211304
3.574726104736328 -1.2996810674667358 -0.10093101859092712
2.2321321964263916 -2.1562979221343994 -0.09482207894325256
6.434238433837891 3.468827486038208 -0.06251518428325653
2.906745433807373 0.21039791405200958 -0.06155580282211304
3.574728488922119 -1.2848676443099976 -0.10212437063455582
2.24753737449646 -2.154557943344116 -0.09838791191577911
1.7014015913009644 2.248840093612671 0.018702810630202293
6.430293560028076 3.4971795082092285 -0.05876808986067772
2.9059650897979736 0.22105106711387634 -0.06104715168476105
3.569960832595825 -1.2683981657028198 -0.10317809879779816
2.2445085048675537 -2.135922908782959 -0.10007724165916443
1.6961395740509033 2.2590456008911133 0.02120118960738182
6.430617809295654 3.5279576778411865 -0.05376787483692169
2.9051461219787598 0.2317013293504715 -0.06053850054740906
3.5745339393615723 -1.2552870512008667 -0.10516178607940674
2.2377138137817383 -2.113882303237915 -0.10265520960092545
1.6878339052200317 2.265227794647217 0.024159425869584084
6.4257965087890625 3.5574800968170166 -0.04999544098973274
2.904245615005493 0.24285542964935303 -0.06002984568476677
3.574354410171509 -1.2405264377593994 -0.10634374618530273
2.2381033897399902 -2.098780632019043 -0.10446395725011826
1.6884247064590454 2.2834415435791016 0.026765970513224602
6.456389904022217 3.6053974628448486 -0.046463850885629654
2.9033360481262207 0.253498375415802 -0.06002984568476677
3.5743279457092285 -1.2251601219177246 -0.10752221196889877
2.256685733795166 -2.100714921951294 -0.10766494274139404
1.68594229221344 2.2976527214050293 0.029844583943486214
6.447515487670898 3.6315057277679443 -0.04132917895913124
2.8924410343170166 0.2632327675819397 -0.05931700021028519
3.578758955001831 -1.2120393514633179 -0.10884113609790802
2.2643144130706787 -2.0923779010772705 -0.10981734842061996
1.6900750398635864 2.3193717002868652 0.032558415085077286
6.444151878356934 3.65781307220459 -0.037505220621824265
2.8914670944213867 0.2738332748413086 -0.05881008878350258
3.5784010887145996 -1.197316288948059 -0.11001433432102203
2.2759430408477783 -2.086979389190674 -0.11269010603427887
1.6493209600448608 2.28096079826355 0.034390855580568314
6.446791172027588 3.693606376647949 -0.03241938725113869
2.8904542922973633 0.28443020582199097 -0.058303169906139374
3.582728624343872 -1.1841806173324585 -0.11133149266242981
2.2798233032226562 -2.075206995010376 -0.11466003954410553
1.65841543674469 2.3113327026367188 0.037736400961875916
6.434521198272705 3.714972496032715 -0.028529081493616104
2.8795483112335205 0.29300162196159363 -0.05810246989130974
3.5727548599243164 -1.1663761138916016 -0.1122010350227356
2.276217222213745 -2.056720018386841 -0.11677972227334976
1.6615118980407715 2.3336586952209473 0.040501635521650314
6.4424824714660645 3.751119613647461 -0.023420535027980804
2.878358840942383 0.30455952882766724 -0.05759729817509651
3.5724127292633057 -1.1511043310165405 -0.11336197704076767
2.287398338317871 -2.0516445636749268 -0.11911509186029434
6.4416351318359375 3.7823078632354736 -0.01955639012157917
2.8821473121643066 0.3161555528640747 -0.057190727442502975
3.5765888690948486 -1.1379969120025635 -0.1140170469880104
2.2989284992218018 -2.046112298965454 -0.12145737558603287
6.393320083618164 3.7855186462402344 -0.014264566823840141
2.88594651222229 0.32728147506713867 -0.05678241699934006
3.5711617469787598 -1.1218727827072144 -0.11502004414796829
2.3512604236602783 -2.0772950649261475 -0.12656141817569733
6.469561576843262 3.8627567291259766 -0.010520840995013714
2.9045979976654053 0.34018397331237793 -0.05666293576359749
3.5752110481262207 -1.108764410018921 -0.11632667481899261
2.3550355434417725 -2.0653107166290283 -0.12854671478271484
6.47678279876709 3.8993401527404785 -0.005277874879539013
3.5744330883026123 -1.0941784381866455 -0.11747623234987259
2.3549680709838867 -2.0500307083129883 -0.13086141645908356
1.9554283618927002 2.853693723678589 0.06581937521696091
6.475271224975586 3.930837392807007 -0.001322086900472641
3.564216136932373 -1.07610023021698 -0.11830469220876694
2.3510565757751465 -2.031526803970337 -0.13240252435207367
1.9599813222885132 2.880779504776001 0.06933560967445374
6.473613262176514 3.962374448776245 0.003974114544689655
3.568096399307251 -1.0630176067352295 -0.11960429698228836
2.351184606552124 -2.015920877456665 -0.1341390162706375
6.48457145690918 4.001826763153076 0.010639523155987263
3.571948528289795 -1.0499268770217896 -0.12025410681962967
2.3432514667510986 -1.9942634105682373 -0.13595883548259735
1.8636252880096436 2.782799482345581 0.07366440445184708
6.482588768005371 4.033486366271973 0.015990694984793663
5.429437160491943 0.7360185980796814 -0.09946434944868088
3.5661330223083496 -1.0340328216552734 -0.12122736871242523
2.3428406715393066 -1.9791529178619385 -0.13765855133533478
1.8732250928878784 2.8183631896972656 0.07797790318727493
6.5016350746154785 4.078468322753906 0.02143261581659317
5.4363579750061035 0.7591930627822876 -0.09868781268596649
3.5700361728668213 -1.0203206539154053 -0.12252344936132431
2.346177339553833 -1.9672813415527344 -0.13957194983959198
1.8628367185592651 2.8251404762268066 0.08152168244123459
6.499310493469238 4.110281944274902 0.025500958785414696
5.37912130355835 0.7713103294372559 -0.09675071388483047
3.5689005851745605 -1.005861759185791 -0.1236528605222702
2.35361909866333 -1.9581793546676636 -0.14224383234977722
1.8688310384750366 2.856961488723755 0.0864151120185852
6.505255222320557 4.147497653961182 0.03366293013095856
3.5725839138031006 -0.9927800297737122 -0.1230056956410408
2.3530399799346924 -1.9431476593017578 -0.14284497499465942
1.8392598628997803 2.8343772888183594 0.08847808092832565
6.506813049316406 4.182112693786621 0.0391501821577549
3.5665178298950195 -0.9770270586013794 -0.12396498024463654
2.352323532104492 -1.928098440170288 -0.14503170549869537
1.8325148820877075 2.8445966243743896 0.09156189113855362
6.50820779800415 4.216796398162842 0.043311864137649536
3.5653765201568604 -0.9620124697685242 -0.12508653104305267
2.3515472412109375 -1.9130959510803223 -0.14667180180549622
1.8058761358261108 2.8259425163269043 0.09426242858171463
6.498349189758301 4.24107027053833 0.048757195472717285
6.557692050933838 1.0362900495529175 -0.11124906688928604
3.568857431411743 -0.9489325284957886 -0.12573105096817017
2.3510234355926514 -1.8977144956588745 -0.14829787611961365
1.8115073442459106 2.8577849864959717 0.09864862263202667
6.5036163330078125 4.2785797119140625 0.054349109530448914
6.4749250411987305 1.0475493669509888 -0.10761915147304535
3.5722687244415283 -0.935834527015686 -0.12702010571956635
2.3422927856445312 -1.8765302896499634 -0.14941272139549255
1.7849940061569214 2.8389155864715576 0.10187142342329025
6.517016887664795 4.32170295715332 0.06141750514507294
6.475805759429932 1.0732239484786987 -0.1065555289387703
3.56601881980896 -0.9202434420585632 -0.12603355944156647
2.3451638221740723 -1.8647593259811401 -0.15125589072704315
1.7798184156417847 2.8538436889648438 0.10511019080877304
6.521879196166992 4.359426975250244 0.06709051132202148
6.457059383392334 1.094448447227478 -0.10516901314258575
3.554795742034912 -0.90346360206604 -0.12680085003376007
2.3600428104400635 -1.8618439435958862 -0.15438339114189148
1.7781873941421509 2.8723981380462646 0.10852685570716858
6.5016913414001465 4.380494594573975 0.06978432089090347
6.467801570892334 1.1206711530685425 -0.10426420718431473
3.587259531021118 -0.8970648050308228 -0.12977349758148193
2.3589026927948 -1.846958041191101 -0.15596209466457367
1.7414392232894897 2.836212158203125 0.11040673404932022
6.506209373474121 4.4182963371276855 0.07824268937110901
6.473531246185303 1.1461186408996582 -0.10212819278240204
3.6584525108337402 -0.9006335139274597 -0.13222868740558624
2.3537416458129883 -1.8290413618087769 -0.1572633534669876
1.8063437938690186 2.9662466049194336 0.1188511922955513
4.2454752922058105 2.9058494567871094 0.05477524921298027
6.439820766448975 1.1645092964172363 -0.09823565930128098
3.719982862472534 -0.901333212852478 -0.13500116765499115
2.3564324378967285 -1.8173195123672485 -0.1580386906862259
1.7282181978225708 2.86151123046875 0.11848917603492737
4.226524829864502 2.915684223175049 0.059149641543626785
6.455191612243652 1.1917383670806885 -0.09739015996456146
3.767007350921631 -0.8981225490570068 -0.13658733665943146
2.3632824420928955 -1.808173418045044 -0.16063551604747772
6.485820770263672 4.50944185256958 0.09513559192419052
6.455726623535156 1.2163217067718506 -0.09517121315002441
3.862792730331421 -0.9052985906600952 -0.1420133113861084
2.361851930618286 -1.7933928966522217 -0.16216686367988586
6.4814629554748535 4.541741371154785 0.10222283750772476
6.416873931884766 1.2333723306655884 -0.09352376312017441
3.9099066257476807 -0.9012356400489807 -0.14362303912639618
2.3603439331054688 -1.7786468267440796 -0.1636842042207718
