# .PCD v0.7 - Point Cloud Data file format
VERSION 0.7
FIELDS x y z
SIZE 4 4 4
TYPE F F F
COUNT 1 1 1
WIDTH 842
HEIGHT 1
VIEWPOINT 0 0 0 1 0 0 0
POINTS 842
DATA ascii
3.3880133628845215 -2.209460735321045 0.4522666335105896
1.8535490036010742 -2.872840642929077 0.332213819026947
2.58583927154541 2.1559696197509766 0.14876015484333038
8.099861145019531 2.2356369495391846 0.6775434017181396
11.439457893371582 -1.7811450958251953 1.2066086530685425
3.417215347290039 -2.210695743560791 0.4522034525871277
1.8723328113555908 -2.878737688064575 0.33126720786094666
2.5740551948547363 2.16218638420105 0.14971290528774261
8.101211547851562 2.2679965496063232 0.6783471703529358
11.46599292755127 -1.7422572374343872 1.2046335935592651
3.450589179992676 -2.214388370513916 0.4533696472644806
1.8835304975509644 -2.8717682361602783 0.32827028632164
2.5706448554992676 2.1739017963409424 0.15111052989959717
8.102433204650879 2.300396203994751 0.6791509389877319
11.24140453338623 -1.6680060625076294 1.1744047403335571
3.479978322982788 -2.2152833938598633 0.452517569065094
1.9051812887191772 -2.8816921710968018 0.32715877890586853
2.5808212757110596 2.2003374099731445 0.15459927916526794
11.227548599243164 -1.6239157915115356 1.1743288040161133
3.526740550994873 -2.225207805633545 0.4566965103149414
1.9223843812942505 -2.882493734359741 0.3256828486919403
2.5924196243286133 2.2251136302948 0.15693026781082153
7.262629985809326 2.118238925933838 0.6126710772514343
11.26338005065918 -1.5869745016098022 1.1734473705291748
3.5562100410461426 -2.2256202697753906 0.4564894735813141
1.933125376701355 -2.8757100105285645 0.3220544159412384
2.69331955909729 2.3297371864318848 0.1660699099302292
7.260242938995361 2.1436920166015625 0.6143959164619446
11.254542350769043 -1.5436817407608032 1.1699254512786865
3.58910870552063 -2.229680061340332 0.45752236247062683
1.9538791179656982 -2.885867118835449 0.3226887881755829
7.256905555725098 2.17165470123291 0.6174445152282715
11.245737075805664 -1.5005017518997192 1.1644285917282104
3.5339086055755615 -2.1774775981903076 0.447999507188797
1.9646323919296265 -2.8789639472961426 0.3190390467643738
3.6706676483154297 3.2224907875061035 0.23205555975437164
7.267202854156494 2.206559658050537 0.6190693974494934
11.290568351745605 -1.4663888216018677 1.1665253639221191
1.9819772243499756 -2.879486322402954 0.3169001638889313
3.629932403564453 3.20810604095459 0.23269392549991608
7.269166469573975 2.2335102558135986 0.6225363612174988
11.28640079498291 -1.4238027334213257 1.1615352630615234
2.0001516342163086 -2.885356903076172 0.3158034682273865
2.6184074878692627 2.3312768936157227 0.17085081338882446
7.279755115509033 2.2659974098205566 0.6268295049667358
11.262120246887207 -1.378824234008789 1.1565077304840088
2.0108394622802734 -2.8781864643096924 0.31335240602493286
2.579655647277832 2.3145925998687744 0.17011360824108124
7.276153564453125 2.2941622734069824 0.6272392272949219
11.301675796508789 -1.341641902923584 1.1600568294525146
2.0368781089782715 -2.8906707763671875 0.31248894333839417
2.5043814182281494 2.263676166534424 0.16805824637413025
7.310314655303955 2.3344249725341797 0.6322658658027649
11.306716918945312 -1.3002331256866455 1.15807044506073
2.058614730834961 -2.8999667167663574 0.31176671385765076
2.481254816055298 2.259351968765259 0.16823521256446838
7.320464134216309 2.367267608642578 0.636593759059906
11.306462287902832 -1.2582330703735352 1.1575642824172974
2.0751521587371826 -2.9006805419921875 0.310150146484375
2.455256700515747 2.2506167888641357 0.16930878162384033
7.325944900512695 2.3987343311309814 0.6378306746482849
11.335917472839355 -1.2214664220809937 1.1561152935028076
2.0858960151672363 -2.893230676651001 0.30766016244888306
2.442469358444214 2.257004976272583 0.1707962453365326
7.335811138153076 2.4317705631256104 0.6421775817871094
11.330621719360352 -1.178901195526123 1.1531181335449219
2.1035096645355225 -2.893108606338501 0.305398166179657
2.434905767440796 2.265031099319458 0.17253752052783966
7.331359386444092 2.4601547718048096 0.6452910900115967
11.334468841552734 -1.141321063041687 1.1531181335449219
2.1279337406158447 -2.906388282775879 0.30501022934913635
2.4188387393951416 2.2674717903137207 0.17375536262989044
7.350601673126221 2.4966237545013428 0.6477857828140259
11.364117622375488 -1.0982437133789062 1.1516505479812622
2.7778189182281494 -1.5748159885406494 0.3282921612262726
2.141655683517456 -2.9027493000030518 0.3029137849807739
2.421313524246216 2.286522388458252 0.17686544358730316
7.3694586753845215 2.5331926345825195 0.6530006527900696
11.35836124420166 -1.05568265914917 1.1486561298370361
2.7533695697784424 -1.5476475954055786 0.3230588734149933
2.1642980575561523 -2.911044120788574 0.3020549714565277
2.4237241744995117 2.3056626319885254 0.1788286566734314
7.604611873626709 2.6452300548553467 0.6775222420692444
11.357197761535645 -1.0136029720306396 1.1481552124023438
2.742372512817383 -1.5270118713378906 0.3188326358795166
2.185091018676758 -2.914503335952759 0.300121009349823
7.542945861816406 2.654810905456543 0.6757016777992249
11.390406608581543 -0.9765022993087769 1.1511608362197876
2.7738616466522217 -1.5318857431411743 0.32131126523017883
2.207899808883667 -2.92254638671875 0.2992062270641327
3.726059913635254 3.5944457054138184 0.2840130925178528
7.482243537902832 2.6613643169403076 0.6738429069519043
11.378907203674316 -0.937515914440155 1.14766526222229
2.818288803100586 -1.5442469120025635 0.32472923398017883
2.215196132659912 -2.9110212326049805 0.29624542593955994
3.7271103858947754 3.6219260692596436 0.28692275285720825
7.387128829956055 2.6609864234924316 0.6662335991859436
11.377619743347168 -0.8914421200752258 1.1471651792526245
2.7853596210479736 -1.5116974115371704 0.3174396753311157
2.2543270587921143 -2.937896251678467 0.296646386384964
3.7272984981536865 3.650040626525879 0.2916673421859741
7.335445880889893 2.6713340282440186 0.6651540994644165
11.406017303466797 -0.8516170382499695 1.145673155784607
2.8260302543640137 -1.5203882455825806 0.3203061819076538
2.2652060985565186 -2.929777145385742 0.2940610349178314
3.7043635845184326 3.6517233848571777 0.29446157813072205
7.3169779777526855 2.6921236515045166 0.6670266389846802
11.398852348327637 -0.8130806088447571 1.1446764469146729
2.281158447265625 -2.930277109146118 0.29226014018058777
7.325518608093262 2.7257914543151855 0.6714599132537842
11.3967924118042 -0.7709605097770691 1.1441781520843506
3.7912254333496094 -2.0056564807891846 0.4243253469467163
2.3012380599975586 -2.9338231086730957 0.290833979845047
7.320032119750977 2.754335641860962 0.6732529401779175
11.42469310760498 -0.7287907600402832 1.1446717977523804
2.3213741779327393 -2.937260866165161 0.2893868088722229
4.398497581481934 4.432405948638916 0.363332599401474
7.323855400085449 2.7864606380462646 0.6745393872261047
11.427685737609863 -0.6869361400604248 1.140675663948059
2.335355043411255 -2.932790517807007 0.2871549129486084
4.354021072387695 4.419869422912598 0.36534059047698975
7.3273210525512695 2.818565845489502 0.6785663366317749
11.424934387207031 -0.6487547159194946 1.1401798725128174
3.8489646911621094 -1.982347011566162 0.4222187399864197
2.3524532318115234 -2.9321441650390625 0.2852942943572998
7.307434558868408 2.8417060375213623 0.6804421544075012
11.442138671875 -0.6076674461364746 1.1416670083999634
3.8562703132629395 -1.9682602882385254 0.42146310210227966
2.372680902481079 -2.9352505207061768 0.28445321321487427
7.282841205596924 2.8629159927368164 0.6818768978118896
11.444289207458496 -0.5657258033752441 1.1416670083999634
3.8503971099853516 -1.9475067853927612 0.4169975221157074
2.3998677730560303 -2.945676326751709 0.28235334157943726
3.124338150024414 3.241002321243286 0.27297183871269226
7.281446933746338 2.8932242393493652 0.6841123700141907
11.456624031066895 -0.5242496728897095 1.1386553049087524
3.848403215408325 -1.9296578168869019 0.414532870054245
2.4202640056610107 -2.948575258255005 0.2808018922805786
3.101954698562622 3.241476535797119 0.27519625425338745
7.298304080963135 2.930940628051758 0.6894672513008118
11.472984313964844 -0.48286646604537964 1.1441457271575928
3.8601012229919434 -1.9178506135940552 0.4127553105354309
2.421645164489746 -2.9283063411712646 0.2770479619503021
3.1037018299102783 3.2671914100646973 0.2787802517414093
7.3011345863342285 2.9631991386413574 0.6935276985168457
11.470026016235352 -0.4426388442516327 1.1396433115005493
3.8627676963806152 -1.9015549421310425 0.4107757806777954
2.448446035385132 -2.938716173171997 0.2761955261230469
3.091571807861328 3.2784030437469482 0.2819262444972992
7.2946085929870605 2.991737127304077 0.6967183351516724
11.466200828552246 -0.4004085659980774 1.143154263496399
3.8608927726745605 -1.8830832242965698 0.4083266258239746
2.4592931270599365 -2.929832696914673 0.2741926908493042
3.0856451988220215 3.2973921298980713 0.28570351004600525
7.301660060882568 3.02593994140625 0.7026172876358032
11.492854118347168 -0.3591696619987488 1.1416192054748535
3.8723785877227783 -1.8711471557617188 0.4072985053062439
2.47013783454895 -2.9209446907043457 0.2715221345424652
3.0372202396392822 3.2672946453094482 0.28456664085388184
7.365098476409912 3.0808873176574707 0.7097010016441345
11.47917366027832 -0.31663230061531067 1.1401373147964478
3.879338264465332 -1.8570027351379395 0.40579724311828613
2.4906532764434814 -2.9234049320220947 0.2699030339717865
3.0453920364379883 3.300259828567505 0.2896116077899933
7.3810529708862305 3.119396924972534 0.7151546478271484
11.49517822265625 -0.2749137282371521 1.1416192054748535
3.8772506713867188 -1.838566780090332 0.4033600687980652
2.5047223567962646 -2.9181840419769287 0.26756882667541504
3.0297679901123047 3.307570457458496 0.2924213409423828
7.37391996383667 3.1482863426208496 0.7183979153633118
11.496109008789062 -0.23277994990348816 1.1416192054748535
3.8751413822174072 -1.8201998472213745 0.4001825153827667
2.4931869506835938 -2.882277488708496 0.2624790370464325
2.994025707244873 3.2926993370056152 0.2924747169017792
7.389420986175537 3.1869750022888184 0.7252888083457947
11.51715087890625 -0.192989781498909 1.1395745277404785
3.8773999214172363 -1.8039435148239136 0.39822447299957275
2.464526653289795 -2.828127861022949 0.2557374835014343
3.0018563270568848 3.3257193565368652 0.29756978154182434
7.373453140258789 3.210660457611084 0.7276473045349121
11.497878074645996 -0.15051546692848206 1.1376054286956787
3.875068187713623 -1.7856109142303467 0.3958079516887665
2.980100631713867 3.3248770236968994 0.29969289898872375
7.343169689178467 3.2295424938201904 0.7286453247070312
11.513279914855957 -0.10851331055164337 1.1390821933746338
3.8817121982574463 -1.7714532613754272 0.3943185806274414
2.9478936195373535 3.313297748565674 0.30000588297843933
7.426733493804932 3.2988319396972656 0.7395618557929993
11.51360034942627 -0.06631430983543396 1.1390821933746338
3.887690305709839 -1.7586278915405273 0.39282914996147156
2.51143479347229 -2.820754289627075 0.24952837824821472
2.956606864929199 3.3453640937805176 0.30436843633651733
7.432527542114258 3.3340752124786377 0.7442179918289185
11.503813743591309 -0.024093568325042725 1.1380976438522339
3.844250440597534 -1.7220325469970703 0.3863166570663452
2.9375698566436768 3.348477363586426 0.3075755536556244
7.434682846069336 3.364701986312866 0.7498556971549988
11.528510093688965 0.014084738679230213 1.142571210861206
3.891322612762451 -1.726835012435913 0.38894036412239075
2.921860456466675 3.3552980422973633 0.3103373646736145
7.403949737548828 3.38354229927063 0.7508673667907715
11.533367156982422 0.0543501153588295 1.1430643796920776
3.88863205909729 -1.7086093425750732 0.3865479528903961
2.8909971714019775 3.342170476913452 0.3113349974155426
15.193899154663086 7.010915756225586 1.5493673086166382
11.508212089538574 0.09641323238611221 1.1405986547470093
3.894991636276245 -1.6943989992141724 0.3850652575492859
2.5432889461517334 -2.772596836090088 0.23934698104858398
2.8688745498657227 3.3412680625915527 0.3125867545604706
15.086133003234863 7.028369426727295 1.5497839450836182
11.552558898925781 0.139131560921669 1.1450368165969849
3.8921518325805664 -1.6762254238128662 0.3826832175254822
2.8650333881378174 3.364022970199585 0.31596246361732483
15.055521011352539 7.081381320953369 1.552224040031433
11.532470703125 0.18116652965545654 1.1390382051467896
3.893933057785034 -1.660099983215332 0.37927839159965515
2.791945457458496 3.301483154296875 0.31220537424087524
11.521580696105957 0.2232372909784317 1.1400667428970337
3.890814781188965 -1.641944408416748 0.3783859610557556
2.789303779602051 3.3229846954345703 0.31631457805633545
11.550530433654785 0.26615220308303833 1.1430202722549438
3.897049903869629 -1.6277741193771362 0.37543758749961853
2.7514286041259766 3.3023672103881836 0.31640684604644775
10.736138343811035 5.194676399230957 1.1274175643920898
11.564400672912598 0.30888381600379944 1.144497036933899
3.893784523010254 -1.6096745729446411 0.3745521306991577
2.4118258953094482 -2.534437656402588 0.21153268218040466
2.7009975910186768 3.2661056518554688 0.31570079922676086
10.707549095153809 5.229362487792969 1.1327159404754639
11.532811164855957 0.3483298122882843 1.1475849151611328
3.9089980125427246 -1.5992132425308228 0.3739633560180664
2.6920669078826904 3.2797091007232666 0.318293958902359
3.9057209491729736 -1.5811864137649536 0.371610552072525
2.4344494342803955 -2.5200657844543457 0.20694229006767273
2.68733549118042 3.296173334121704 0.3220110535621643
3.0180768966674805 0.11330525577068329 0.29932701587677
3.9115500450134277 -1.5668846368789673 0.37087514996528625
2.4890244007110596 -2.5577332973480225 0.20828302204608917
2.7027361392974854 3.341176748275757 0.3284088969230652
10.213335037231445 5.125609874725342 1.0983147621154785
3.0175893306732178 0.12436415255069733 0.2998541295528412
3.908665895462036 -1.5475503206253052 0.36853092908859253
2.464416742324829 -2.512190341949463 0.20291319489479065
10.238536834716797 5.185321807861328 1.1071046590805054
3.017113208770752 0.13542333245277405 0.2998541295528412
3.914015293121338 -1.5346739292144775 0.3655959665775299
2.50437593460083 -2.5360465049743652 0.20363739132881165
10.378478050231934 5.304080486297607 1.1304908990859985
3.016596555709839 0.14648069441318512 0.2998541295528412
3.919613838195801 -1.5203179121017456 0.3655959665775299
2.527836799621582 -2.541107416152954 0.20227594673633575
3.001108407974243 0.15623098611831665 0.2988966405391693
3.925015449523926 -1.5066723823547363 0.364128440618515
2.5477843284606934 -2.5424535274505615 0.20186473429203033
2.955806016921997 0.16473771631717682 0.29444289207458496
3.9212570190429688 -1.4887627363204956 0.3625335693359375
2.5718164443969727 -2.546802043914795 0.2004578411579132
7.588245868682861 3.9805402755737305 0.84018874168396
2.915499448776245 0.17321257293224335 0.28997427225112915
3.9081506729125977 -1.4674204587936401 0.3593541383743286
2.5847930908203125 -2.5409560203552246 0.1982039511203766
7.568948268890381 4.005860328674316 0.8426901698112488
2.8999478816986084 0.18295741081237793 0.28849226236343384
3.9136202335357666 -1.4531301259994507 0.3578968942165375
2.54058837890625 -2.4792563915252686 0.19163060188293457
7.580160140991211 4.047428607940674 0.8501275181770325
2.8792498111724854 0.19224907457828522 0.28802725672721863
3.919036865234375 -1.4388192892074585 0.35643965005874634
2.553316354751587 -2.4734714031219482 0.19003881514072418
2.703956365585327 3.5468811988830566 0.36589640378952026
2.8537111282348633 0.2010524868965149 0.2855442762374878
3.919659376144409 -1.4227668046951294 0.35528650879859924
2.5516393184661865 -2.453782320022583 0.18738454580307007
2.6967966556549072 3.5645110607147217 0.36983463168144226
5.381259441375732 2.9242184162139893 0.6123819947242737
3.9296536445617676 -1.4101155996322632 0.3542536795139313
2.5606861114501953 -2.4444808959960938 0.18553094565868378
2.6775355339050293 3.5661425590515137 0.3729017376899719
5.400856018066406 2.9605588912963867 0.6180142164230347
3.9349122047424316 -1.3957445621490479 0.3527962863445282
2.5552241802215576 -2.421428918838501 0.18202663958072662
2.6702446937561035 3.5837132930755615 0.37685519456863403
5.490346431732178 3.034585952758789 0.6327805519104004
2.5537455081939697 0.20771263539791107 0.25664275884628296
3.9306559562683105 -1.378036618232727 0.351227343082428
2.560957193374634 -2.4082658290863037 0.1793142855167389
2.67474627494812 3.617352247238159 0.3817315697669983
2.5480539798736572 0.21665343642234802 0.2556980848312378
3.926380157470703 -1.3603986501693726 0.34893661737442017
2.5698351860046387 -2.3989269733428955 0.17747357487678528
4.420717716217041 6.024686813354492 0.6406269073486328
7.46181583404541 4.195942401885986 0.8725776672363281
2.5471537113189697 0.2259831726551056 0.25659069418907166
3.9266254901885986 -1.3443844318389893 0.3485182225704193
2.571352481842041 -2.3827662467956543 0.1751338690519333
4.412184715270996 6.055054664611816 0.6475659012794495
2.551307201385498 0.23577940464019775 0.25664275884628296
3.9269790649414062 -1.3284451961517334 0.34592923521995544
2.5691092014312744 -2.3632447719573975 0.17255771160125732
4.376965045928955 6.0554351806640625 0.6510600447654724
2.545471429824829 0.24420426785945892 0.25659069418907166
3.936661958694458 -1.315660834312439 0.3448961675167084
2.5704662799835205 -2.347158193588257 0.1696339100599289
4.400923252105713 6.135824203491211 0.6632763743400574
2.544647693634033 0.25264403223991394 0.25659069418907166
3.941457748413086 -1.3012235164642334 0.3448961675167084
2.5791170597076416 -2.337780475616455 0.1678113043308258
4.357918739318848 6.1231303215026855 0.6654607057571411
5.171319484710693 3.0085716247558594 0.6214298009872437
2.5434789657592773 0.26284298300743103 0.25792959332466125
3.9415202140808105 -1.2852423191070557 0.34375855326652527
2.5765953063964844 -2.3183488845825195 0.1652742326259613
4.3523478507995605 6.16299295425415 0.6746911406517029
5.173903465270996 3.033083915710449 0.6261197924613953
2.5424537658691406 0.27215874195098877 0.258375883102417
3.946096420288086 -1.2715128660202026 0.34231138229370117
2.5855424404144287 -2.3084957599639893 0.1634593904018402
4.357279300689697 6.213602066040039 0.6853222250938416
5.1239423751831055 3.0290839672088623 0.624563992023468
2.5414390563964844 0.2814754843711853 0.258375883102417
3.945924758911133 -1.255511999130249 0.34262266755104065
2.5902907848358154 -2.2957284450531006 0.1620156615972519
2.6506166458129883 3.8094797134399414 0.421537846326828
5.091169357299805 3.0349459648132324 0.625058650970459
2.5403964519500732 0.2903399169445038 0.25882217288017273
3.9459733963012695 -1.2396191358566284 0.339322954416275
2.5950427055358887 -2.283012628555298 0.15876571834087372
2.637920618057251 3.8238837718963623 0.4260442554950714
5.066413879394531 3.0466158390045166 0.6265810132026672
2.544210433959961 0.3002266585826874 0.2597728371620178
3.9553062915802 -1.2266416549682617 0.33900898694992065
2.607196569442749 -2.2768077850341797 0.15778689086437225
4.535467624664307 6.62140417098999 0.7417054176330566
5.043338775634766 3.0555579662323 0.6270585060119629
2.5381100177764893 0.30894312262535095 0.25971469283103943
3.9502453804016113 -1.209219217300415 0.3381930887699127
2.5967350006103516 -2.2509496212005615 0.15424932539463043
4.585178375244141 6.74941873550415 0.7612493634223938
4.976669788360596 3.0401570796966553 0.623238742351532
2.5369155406951904 0.3182379901409149 0.2601609230041504
3.9594779014587402 -1.1961909532546997 0.33787915110588074
2.597846031188965 -2.234499931335449 0.15200676023960114
4.559689521789551 6.760017395019531 0.7664777040481567
4.969448089599609 3.0608129501342773 0.6268261671066284
2.5407798290252686 0.32728448510169983 0.260667085647583
3.949620485305786 -1.1774330139160156 0.33521923422813416
2.5985004901885986 -2.2185447216033936 0.14917829632759094
4.601391315460205 6.881267070770264 0.7839553356170654
4.928354740142822 3.0604748725891113 0.6261262893676758
2.549262285232544 0.33878573775291443 0.26212823390960693
3.9635279178619385 -1.1657780408859253 0.33530890941619873
2.599031925201416 -2.202580213546753 0.14755290746688843
4.5865020751953125 6.90847110748291 0.7911589741706848
4.8957600593566895 3.0651543140411377 0.6264681816101074
2.54801869392395 0.3476760983467102 0.2625770568847656
3.9678304195404053 -1.1512595415115356 0.33458781242370605
2.603323459625244 -2.189873218536377 0.14555536210536957
4.634682655334473 7.0368804931640625 0.8113343119621277
4.858994960784912 3.066983222961426 0.6262419819831848
2.5466818809509277 0.35700637102127075 0.2630259096622467
3.967343807220459 -1.1353697776794434 0.332743763923645
2.6037402153015137 -2.173978090286255 0.14275985956192017
4.589416027069092 7.02406120300293 0.8153020143508911
4.827548980712891 3.069568395614624 0.6265288591384888
2.540424108505249 0.3647230565547943 0.2638609707355499
3.9714224338531494 -1.120805263519287 0.33346399664878845
2.604036331176758 -2.158076524734497 0.1411588042974472
4.60392951965332 7.102992534637451 0.8284652233123779
4.8316450119018555 3.0994796752929688 0.6317119598388672
2.534104108810425 0.37330013513565063 0.26379668712615967
3.9756157398223877 -1.1062729358673096 0.3320235311985016
2.604642629623413 -2.1417624950408936 0.13897617161273956
4.642057418823242 7.2196550369262695 0.8476449251174927
4.819880485534668 3.1169273853302 0.6357192993164062
2.5325396060943604 0.38346272706985474 0.2642437517642975
3.9316351413726807 -1.0785243511199951 0.3273020088672638
2.6163828372955322 -2.1353909969329834 0.13800321519374847
4.624536991119385 7.247898101806641 0.8551214933395386
4.7676920890808105 3.1056485176086426 0.6322014331817627
2.536123514175415 0.39261266589164734 0.2652047276496887
4.075144290924072 -1.1018476486206055 0.3381689190864563
2.6126201152801514 -2.1164133548736572 0.13504348695278168
4.687918663024902 7.4069647789001465 0.8811268210411072
4.776035308837891 3.137268543243408 0.6399490237236023
2.5394632816314697 0.403120219707489 0.2661674916744232
2.6164841651916504 -2.1037073135375977 0.13425685465335846
11.415828704833984 18.184288024902344 2.16955304145813
4.714602947235107 3.121711254119873 0.635245144367218
2.5330140590667725 0.4116199314594269 0.26610055565834045
2.6242496967315674 -2.09416127204895 0.1319129765033722
4.674911975860596 7.507638931274414 0.9014776945114136
4.699721813201904 3.134324789047241 0.6386308073997498
2.5314972400665283 0.4199945628643036 0.2674441933631897
2.6241281032562256 -2.078367233276367 0.12976765632629395
2.5347979068756104 0.43009427189826965 0.26841121912002563
11.267945289611816 -2.8721632957458496 0.9253733158111572
2.6360533237457275 -2.0713911056518555 0.12879109382629395
11.13040542602539 18.156055450439453 2.204505205154419
7.513631343841553 5.090936660766602 1.0372796058654785
2.533158302307129 0.4393738806247711 0.26885995268821716
11.225217819213867 -2.8174972534179688 0.9210101962089539
2.623980760574341 -2.046393394470215 0.12608908116817474
11.11723804473877 18.284643173217773 2.2302563190460205
3.1380789279937744 2.1430609226226807 0.43631860613822937
2.526587963104248 0.4477793574333191 0.26878777146339417
11.254981994628906 -2.7811574935913086 0.920573353767395
2.59597110748291 -2.009290933609009 0.12209342420101166
10.95352554321289 18.17220687866211 2.230114698410034
3.1054656505584717 2.1375210285186768 0.43487051129341125
2.5298564434051514 0.4574725925922394 0.26975739002227783
11.187765121459961 -2.7210779190063477 0.9122313857078552
2.6271097660064697 -2.018038511276245 0.12263026088476181
10.903703689575195 18.240427017211914 2.252319097518921
3.1055846214294434 2.154420852661133 0.4379955232143402
2.533006429672241 0.4676361382007599 0.2707287073135376
11.328700065612793 -2.7114169597625732 0.9208606481552124
2.678266763687134 -2.0417702198028564 0.1223137229681015
10.764580726623535 18.158485412597656 2.2596704959869385
3.0810725688934326 2.1541860103607178 0.4389742314815521
2.5311357975006104 0.4768906235694885 0.272077351808548
11.318999290466309 -2.6652705669403076 0.9213141798973083
2.673794746398926 -2.022908926010132 0.12118413299322128
10.733753204345703 18.24413299560547 2.280834913253784
3.081465721130371 2.1705148220062256 0.442107617855072
2.534207344055176 0.48709404468536377 0.27305302023887634
11.343415260314941 -2.627176284790039 0.9204666018486023
2.6896023750305176 -2.018676519393921 0.11919762939214706
10.601079940795898 18.170684814453125 2.277923107147217
3.0813353061676025 2.187363862991333 0.4459107518196106
2.5372371673583984 0.4973263144493103 0.2740303874015808
11.353124618530273 -2.585618495941162 0.9184344410896301
2.709021806716919 -2.0177721977233887 0.1191394105553627
10.617834091186523 18.353620529174805 2.318429708480835
3.0810558795928955 2.204192876815796 0.45038875937461853
2.5353448390960693 0.5061517357826233 0.2753841280937195
11.337892532348633 -2.5384747982025146 0.9205243587493896
2.6842856407165527 -1.9840927124023438 0.1165643110871315
3.0769202709198 2.2183284759521484 0.45164111256599426
2.5333781242370605 0.5154216289520264 0.2762865722179413
11.352457046508789 -2.498076915740967 0.9148330688476562
2.647265672683716 -1.9417660236358643 0.11292584985494614
10.490821838378906 18.444692611694336 2.35764217376709
11.375996589660645 -2.4595775604248047 0.9180413484573364
2.8846867084503174 -2.099696159362793 0.1214776337146759
3.6326723098754883 2.6596879959106445 0.5440347790718079
10.214653968811035 2.1562893390655518 1.1230614185333252
11.364853858947754 -2.4156742095947266 0.9184964895248413
2.8275818824768066 -2.042318820953369 0.11753790825605392
10.271652221679688 18.363901138305664 2.375044822692871
3.6385693550109863 2.6845457553863525 0.5495909452438354
10.1821870803833 2.1865897178649902 1.125840425491333
11.383233070373535 -2.3760077953338623 0.9213141798973083
2.7622997760772705 -1.9790712594985962 0.11391376703977585
10.18860912322998 18.3731746673584 2.3936820030212402
3.6134026050567627 2.684528112411499 0.550320565700531
10.192758560180664 2.2279720306396484 1.1352741718292236
11.401473045349121 -2.3362390995025635 0.9241353273391724
2.7532756328582764 -1.9573744535446167 0.11206449568271637
10.084092140197754 18.3428955078125 2.4071130752563477
3.611098527908325 2.703413248062134 0.5554708242416382
11.365822792053223 -2.2855594158172607 0.92259681224823
2.650177240371704 -1.8694943189620972 0.10758854448795319
10.09203815460205 18.364940643310547 2.4245991706848145
3.6145243644714355 2.7059781551361084 0.5615985989570618
11.397708892822266 -2.2981812953948975 0.9395791292190552
10.229525566101074 18.454553604125977 2.4338998794555664
3.604504108428955 2.677917242050171 0.5585129857063293
10.272746086120605 2.2454559803009033 1.1683303117752075
11.368875503540039 -2.3357629776000977 0.9480969309806824
2.91491436958313 -2.0745859146118164 0.12556463479995728
10.27853012084961 18.38372802734375 2.4146127700805664
3.626354455947876 2.673579216003418 0.5595780611038208
10.270991325378418 2.205660104751587 1.1690595149993896
11.389017105102539 -2.383439064025879 0.9566320776939392
2.838192939758301 -2.0356953144073486 0.1250218003988266
10.275693893432617 18.22154426574707 2.3871448040008545
3.5802204608917236 2.619365930557251 0.5494017004966736
10.264617919921875 2.1649653911590576 1.165569543838501
11.34105110168457 -2.4168219566345215 0.9553783535957336
2.895050287246704 -2.093357563018799 0.13100124895572662
10.420116424560547 18.31294059753418 2.3894424438476562
10.267419815063477 2.1262803077697754 1.166847586631775
11.360844612121582 -2.4646048545837402 0.963928759098053
2.9034554958343506 -2.1156840324401855 0.133615180850029
10.481407165527344 18.279369354248047 2.3784098625183105
3.0758779048919678 2.216761350631714 0.46620261669158936
2.5225234031677246 0.5127546787261963 0.2864583134651184
11.370702743530273 -2.510415554046631 0.9716786742210388
2.617706775665283 -1.9221935272216797 0.12362674623727798
10.616530418395996 18.3587589263916 2.3750455379486084
3.0800113677978516 2.2026331424713135 0.46493151783943176
2.534093141555786 0.5059018731117249 0.2871133089065552
11.332090377807617 -2.545485258102417 0.9712110757827759
2.719031572341919 -2.011977434158325 0.13053308427333832
10.68687629699707 18.325088500976562 2.364494800567627
3.0760536193847656 2.182807207107544 0.4617869257926941
2.5310046672821045 0.4956459701061249 0.2870113253593445
11.336759567260742 -2.5902180671691895 0.9785500764846802
2.703202724456787 -2.0163733959198 0.13250188529491425
10.694341659545898 18.184406280517578 2.336474895477295
3.0761141777038574 2.1659421920776367 0.4586018919944763
2.532853364944458 0.4863754212856293 0.28656119108200073
11.346434593200684 -2.636223316192627 0.9822601675987244
2.7436816692352295 -2.0622618198394775 0.1360555738210678
10.82005500793457 18.24480438232422 2.3343260288238525
3.095679998397827 2.1643991470336914 0.4584392011165619
2.5394535064697266 0.4779987633228302 0.28756430745124817
11.312286376953125 -2.6720266342163086 0.9821882247924805
2.6444103717803955 -2.0028555393218994 0.1343955099582672
10.872589111328125 18.181171417236328 2.31255841255188
3.067081928253174 2.1277105808258057 0.45106303691864014
2.536350727081299 0.46779578924179077 0.28656119108200073
11.321626663208008 -2.7180821895599365 0.985904335975647
10.933235168457031 18.14570426940918 2.305163621902466
3.095304012298584 2.130526542663574 0.4540621042251587
2.5331578254699707 0.4576129615306854 0.2860090136528015
11.33141040802002 -2.760204792022705 0.9936985969543457
2.578389883041382 -1.9820454120635986 0.13573764264583588
7.562594413757324 5.166592121124268 1.1018683910369873
2.5297975540161133 0.44789284467697144 0.28590530157089233
11.291695594787598 -2.794412136077881 0.9972425699234009
2.646089792251587 -2.049560546875 0.14145177602767944
11.211642265319824 18.288570404052734 2.303879737854004
7.571418762207031 5.1281633377075195 1.0952887535095215
2.5316243171691895 0.4377425014972687 0.28545689582824707
11.299541473388672 -2.844539165496826 1.0009845495224
2.653510570526123 -2.072403907775879 0.14464682340621948
4.66336727142334 7.55063533782959 0.9468579292297363
7.572062015533447 5.092051982879639 1.0913176536560059
2.5282111167907715 0.4285227358341217 0.2844572067260742
11.31300163269043 -2.8920607566833496 1.005162239074707
2.626209259033203 -2.0666229724884033 0.14532358944416046
4.687415599822998 7.524792194366455 0.939608097076416
7.471220016479492 4.984569072723389 1.070963978767395
2.534618616104126 0.42005789279937744 0.28545689582824707
11.287521362304688 -2.9296631813049316 1.0079466104507446
2.62638521194458 -2.0823938846588135 0.1475130319595337
4.59374475479126 7.314545631408691 0.9078296422958374
7.643099784851074 5.058857440948486 1.0880696773529053
2.5361900329589844 0.4107731580734253 0.2850084900856018
11.281353950500488 -2.972238302230835 1.010413408279419
2.618288993835449 -2.0923984050750732 0.1498529613018036
4.628863334655762 7.3164825439453125 0.9053872227668762
7.616407871246338 5.001142501831055 1.0768153667449951
2.5327494144439697 0.40114808082580566 0.2840096354484558
4.08544921875 -1.092400312423706 0.3684999644756317
2.6183223724365234 -2.108196496963501 0.15205976366996765
4.631834506988525 7.262130260467529 0.8961969614028931
2.534153461456299 0.39185479283332825 0.2844572067260742
3.9610536098480225 -1.0747097730636597 0.35979798436164856
2.6259891986846924 -2.1302809715270996 0.15591442584991455
4.605044841766357 7.16209077835083 0.87841796875
4.859029293060303 3.1398394107818604 0.6796070337295532
2.5308055877685547 0.38184478878974915 0.2825658619403839
3.9762966632843018 -1.0945079326629639 0.36154457926750183
2.6142539978027344 -2.1366958618164062 0.15686269104480743
4.582900047302246 7.070548057556152 0.8633002042770386
4.815912246704102 3.0882010459899902 0.6690279841423035
2.527222156524658 0.37183570861816406 0.282463014125824
3.9721977710723877 -1.1090575456619263 0.36226439476013184
2.6136765480041504 -2.1530168056488037 0.15909986197948456
4.587181568145752 7.020641803741455 0.8562957048416138
4.848348140716553 3.083981990814209 0.6699260473251343
2.5333895683288574 0.3632618486881256 0.283905953168869
3.967923164367676 -1.1235570907592773 0.3644237220287323
2.6095032691955566 -2.165682077407837 0.16229389607906342
4.553417205810547 6.9187493324279785 0.838402509689331
4.847313404083252 3.058426856994629 0.6651880741119385
2.5445969104766846 0.3553556203842163 0.28456005454063416
3.9736897945404053 -1.139437198638916 0.36602547764778137
2.613738775253296 -2.18387508392334 0.16479434072971344
4.589731693267822 6.913335800170898 0.8341201543807983
4.841748237609863 3.0301623344421387 0.6618854999542236
2.5409464836120605 0.34580764174461365 0.2835620939731598
3.9737422466278076 -1.1567354202270508 0.36791113018989563
2.6086819171905518 -2.1974925994873047 0.1674172729253769
4.5713911056518555 6.836402893066406 0.8223130702972412
7.520219326019287 4.668186664581299 1.0210003852844238
2.532294511795044 0.3351815640926361 0.2829088270664215
3.9692907333374023 -1.1712374687194824 0.37007808685302734
2.6043508052825928 -2.2102134227752686 0.16945092380046844
4.572972297668457 6.78226375579834 0.8106979131698608
7.4954328536987305 4.614828586578369 1.0106621980667114
2.533554792404175 0.32590430974960327 0.282463014125824
3.965116024017334 -1.1850672960281372 0.3708003759384155
2.6071619987487793 -2.2298765182495117 0.17199046909809113
4.547694206237793 6.691728591918945 0.7975854277610779
7.478531360626221 4.566706657409668 1.0045700073242188
2.539712905883789 0.31723830103874207 0.2825658619403839
3.9653878211975098 -1.200998067855835 0.37269288301467896
2.6102287769317627 -2.249117136001587 0.17514699697494507
7.430357456207275 4.503530025482178 0.9914785623550415
2.540809392929077 0.30792170763015747 0.2830125689506531
3.9660825729370117 -1.2155814170837402 0.3738648593425751
2.6026864051818848 -2.257699966430664 0.176951065659523
2.6266422271728516 3.804692506790161 0.4484312832355499
7.528950214385986 4.5238494873046875 0.9976505041122437
2.5370829105377197 0.2980387508869171 0.28157132863998413
3.9515976905822754 -1.2285162210464478 0.3736894428730011
2.601073741912842 -2.274663209915161 0.17867013812065125
7.510071277618408 4.478677749633789 0.9900839924812317
2.5430948734283447 0.28974905610084534 0.2816724181175232
3.951693534851074 -1.2444478273391724 0.3755853474140167
2.6000943183898926 -2.2906787395477295 0.18221056461334229
7.496944904327393 4.433681011199951 0.9815857410430908
2.5441884994506836 0.2804315686225891 0.28122568130493164
3.9522275924682617 -1.2590370178222656 0.3767607510089874
2.5920348167419434 -2.2996983528137207 0.18342013657093048
4.562662124633789 6.460801601409912 0.7504515051841736
7.470433235168457 4.381124496459961 0.9744748473167419
2.540208339691162 0.2705731689929962 0.2811254560947418
3.951754570007324 -1.2763819694519043 0.37866267561912537
2.58638334274292 -2.3133058547973633 0.1867126226425171
4.474658012390137 6.29180383682251 0.7284623980522156
7.388085842132568 4.2965168952941895 0.957141101360321
2.5461270809173584 0.2617693245410919 0.2816724181175232
3.942704200744629 -1.2879127264022827 0.37893253564834595
2.5860698223114014 -2.328507661819458 0.18846465647220612
4.422983169555664 6.164309024810791 0.7091606855392456
7.408522129058838 4.272141456604004 0.9532198905944824
2.5471179485321045 0.2524403929710388 0.28122568130493164
3.942103147506714 -1.3052527904510498 0.38083699345588684
2.5876691341400146 -2.348824977874756 0.1923256367444992
4.402077674865723 6.087940216064453 0.6969360113143921
7.459074974060059 4.264939785003662 0.9531521201133728
2.548032760620117 0.24355241656303406 0.2807789742946625
3.9325084686279297 -1.3180888891220093 0.3811042308807373
2.5826773643493652 -2.361616849899292 0.1938219964504242
4.399009704589844 6.041403293609619 0.6893283128738403
7.396983623504639 4.193537712097168 0.9417451620101929
2.543861150741577 0.23374800384044647 0.2811254560947418
3.913254499435425 -1.3276093006134033 0.38261672854423523
2.577575922012329 -2.374357223510742 0.19654513895511627
7.382406711578369 4.149592876434326 0.9334582090377808
2.5497984886169434 0.22487229108810425 0.28033220767974854
3.950741767883301 -1.3564941883087158 0.3867655396461487
2.568364381790161 -2.3841664791107178 0.19838006794452667
2.664513111114502 3.603512763977051 0.4062822461128235
3.946157932281494 -1.369565725326538 0.3874945640563965
2.5749568939208984 -2.4062323570251465 0.2013557404279709
2.6629526615142822 3.5739266872406006 0.4016915261745453
3.9168899059295654 -1.3770498037338257 0.3880840241909027
2.5724406242370605 -2.423297643661499 0.20439347624778748
2.671968460083008 3.56131649017334 0.3981345593929291
5.379001617431641 2.9473581314086914 0.6695676445960999
2.8742282390594482 0.2216644436120987 0.31571394205093384
3.921133279800415 -1.394710659980774 0.38974103331565857
2.5670580863952637 -2.436046838760376 0.207152858376503
2.6911773681640625 3.5596656799316406 0.39590996503829956
2.879941701889038 0.21199506521224976 0.3162582814693451
3.921171188354492 -1.409389853477478 0.3902072310447693
2.566131591796875 -2.4513919353485107 0.20897600054740906
2.8956289291381836 0.20248208940029144 0.31738463044166565
4.009033203125 -1.458376407623291 0.40250954031944275
2.5597333908081055 -2.465007781982422 0.21237115561962128
7.582804203033447 4.047139644622803 0.9261539578437805
2.8963515758514404 0.19186772406101227 0.31738463044166565
4.04096794128418 -1.4867868423461914 0.40701842308044434
2.5613749027252197 -2.4847466945648193 0.21451164782047272
7.5628581047058105 4.000947952270508 0.917388916015625
2.936776876449585 0.18373717367649078 0.3212188184261322
4.096140384674072 -1.5241549015045166 0.41313546895980835
2.541001319885254 -2.483992099761963 0.21609243750572205
4.321749687194824 5.543543338775635 0.6038432121276855
7.612979888916016 3.9918203353881836 0.9186528325080872
2.942392349243164 0.1732642948627472 0.32176142930984497
4.2068610191345215 -1.5829311609268188 0.42646801471710205
2.5282158851623535 -2.489680528640747 0.21826614439487457
9.690584182739258 5.040299892425537 1.1654043197631836
2.9578115940093994 0.16381384432315826 0.323906272649765
4.1455464363098145 -1.575573444366455 0.4231228232383728
2.5127761363983154 -2.490943193435669 0.21950480341911316
9.753728866577148 5.027809143066406 1.1649634838104248
2.9782469272613525 0.153998464345932 0.3260801434516907
4.079207897186279 -1.5674951076507568 0.4184747636318207
2.528237819671631 -2.5247104167938232 0.22416646778583527
9.79814624786377 5.007492542266846 1.1642895936965942
2.9987072944641113 0.14403824508190155 0.3277300298213959
4.012988090515137 -1.5589531660079956 0.41378146409988403
2.5258922576904297 -2.540925979614258 0.2272939383983612
2.6702544689178467 3.325878620147705 0.35590797662734985
9.827584266662598 4.972884654998779 1.15957510471344
2.9743869304656982 0.13194507360458374 0.3250170052051544
3.9556126594543457 -1.5549681186676025 0.4100031852722168
2.5015456676483154 -2.5367202758789062 0.22851495444774628
2.675736904144287 3.308980941772461 0.35210564732551575
9.875493049621582 4.956062316894531 1.1593828201293945
2.9897072315216064 0.12269235402345657 0.32664480805397034
3.908736228942871 -1.5515252351760864 0.40641626715660095
2.510075330734253 -2.563204526901245 0.23136751353740692
2.708085060119629 3.3216238021850586 0.35083961486816406
9.911945343017578 4.928960800170898 1.155673861503601
3.0200159549713135 0.11232239007949829 0.32937297224998474
3.9163312911987305 -1.5727673768997192 0.4078591465950012
2.513558864593506 -2.587458610534668 0.23517312109470367
2.739375591278076 3.334970235824585 0.3502744436264038
9.99276065826416 4.923548221588135 1.1590538024902344
11.495431900024414 0.38535988330841064 1.2535674571990967
3.9011857509613037 -1.5833141803741455 0.4083669185638428
2.5178256034851074 -2.6109302043914795 0.23837345838546753
2.7283034324645996 3.299124240875244 0.3452015817165375
10.09583568572998 4.928431034088135 1.166924238204956
11.446964263916016 0.34573695063591003 1.248150110244751
3.90946364402771 -1.601793885231018 0.41276466846466064
2.5366477966308594 -2.647965908050537 0.24355657398700714
2.7532920837402344 3.3046038150787354 0.34380626678466797
10.109902381896973 4.889494895935059 1.1605277061462402
11.458415031433105 0.30004915595054626 1.2472330331802368
3.9078822135925293 -1.6186977624893188 0.4132508337497711
2.536189556121826 -2.6688520908355713 0.24712106585502625
2.7879323959350586 3.3213510513305664 0.3443244993686676
10.101205825805664 4.839687347412109 1.153534173965454
11.374524116516113 0.25613781809806824 1.2420098781585693
3.901655912399292 -1.632898211479187 0.4162037670612335
2.5468106269836426 -2.6997761726379395 0.2517213523387909
2.835646629333496 3.3531596660614014 0.3456123173236847
10.10576057434082 4.796406269073486 1.1480928659439087
11.484718322753906 0.2165074646472931 1.253947138786316
3.9046761989593506 -1.6510062217712402 0.4186628758907318
2.5368382930755615 -2.709028482437134 0.2530168890953064
2.8842642307281494 3.384209156036377 0.34604737162590027
10.164327621459961 4.778636932373047 1.1468065977096558
11.491028785705566 0.17650340497493744 1.2484724521636963
3.8985986709594727 -1.665306568145752 0.4186628758907318
2.536959648132324 -2.7291383743286133 0.2566385269165039
2.850141763687134 3.321795701980591 0.3383243978023529
10.163272857666016 4.734893321990967 1.1408612728118896
11.491598129272461 0.13438549637794495 1.2484724521636963
3.8877663612365723 -1.6775552034378052 0.419649600982666
2.5365164279937744 -2.7497594356536865 0.259628027677536
2.8950533866882324 3.349221706390381 0.33908718824386597
7.403203964233398 3.416057825088501 0.8253103494644165
11.472131729125977 0.0921061560511589 1.2463124990463257
3.8951401710510254 -1.6976985931396484 0.42261216044425964
2.5398027896881104 -2.773651599884033 0.2629818916320801
2.9271090030670166 3.361325263977051 0.33826667070388794
7.434035778045654 3.397291421890259 0.8244714736938477
11.47237491607666 0.05406269058585167 1.2463124990463257
3.862095355987549 -1.6985582113265991 0.4203793406486511
2.533822774887085 -2.785611391067505 0.26595965027809143
2.918635606765747 3.329237937927246 0.33367830514907837
7.413669586181641 3.3583102226257324 0.8195382952690125
11.477031707763672 0.012018723413348198 1.2508589029312134
3.8966310024261475 -1.7308189868927002 0.42632928490638733
2.5301554203033447 -2.8021442890167236 0.2692999541759491
3.0179803371429443 3.4148073196411133 0.340266615152359
7.408032417297363 3.323087215423584 0.8147004842758179
11.46230411529541 -0.030008308589458466 1.2472330331802368
3.8894476890563965 -1.746355414390564 0.4285617172718048
2.5254151821136475 -2.8195674419403076 0.27265408635139465
2.9823801517486572 3.3532369136810303 0.33348819613456726
7.347672939300537 3.263714551925659 0.8039068579673767
11.467100143432617 -0.07004939764738083 1.2477740049362183
3.8918776512145996 -1.7646149396896362 0.43179938197135925
2.528191089630127 -2.843569040298462 0.2767474353313446
2.984898567199707 3.331399917602539 0.3276926577091217
7.372373580932617 3.2454581260681152 0.8025875091552734
11.466804504394531 -0.10807528346776962 1.2477740049362183
3.886624813079834 -1.776154637336731 0.43179938197135925
2.5186831951141357 -2.8518643379211426 0.27807557582855225
2.9704341888427734 3.290907144546509 0.3232225775718689
7.3617963790893555 3.2086422443389893 0.7959040999412537
11.451419830322266 -0.14990729093551636 1.246151328086853
3.879951238632202 -1.7903245687484741 0.4332910180091858
2.521735429763794 -2.87548828125 0.2822035253047943
2.9994025230407715 3.298612594604492 0.3219280242919922
7.368938446044922 3.179666519165039 0.7954109907150269
11.460734367370605 -0.1920444220304489 1.2472330331802368
3.896087408065796 -1.814292550086975 0.4373132884502411
2.511049747467041 -2.8845624923706055 0.2848735451698303
3.0150299072265625 3.291480779647827 0.31839296221733093
7.35817289352417 3.1430814266204834 0.7873595952987671
11.45541763305664 -0.23395618796348572 1.2426928281784058
3.884841203689575 -1.826411485671997 0.4375564157962799
2.51336932182312 -2.9086859226226807 0.28904297947883606
3.0834805965423584 3.343877077102661 0.3228529095649719
7.342270851135254 3.1045174598693848 0.7830303907394409
11.429203033447266 -0.2753318250179291 1.2439879179000854
3.8778440952301025 -1.8405064344406128 0.440553218126297
2.505838632583618 -2.9215474128723145 0.2914332151412964
3.0658929347991943 3.2992935180664062 0.31652265787124634
7.289586067199707 3.050794839859009 0.7734290361404419
11.44307804107666 -0.31563666462898254 1.2456104755401611
3.8709332942962646 -1.8546404838562012 0.4420515298843384
2.472391128540039 -2.904022693634033 0.2907877266407013
3.08837890625 3.299159049987793 0.3136306405067444
7.287421226501465 3.0185487270355225 0.7664613127708435
11.437309265136719 -0.3574337661266327 1.2410753965377808
3.868587017059326 -1.8709810972213745 0.4425637125968933
2.4680347442626953 -2.9205245971679688 0.29421746730804443
3.0937180519104004 3.2806787490844727 0.31057727336883545
7.303040981292725 2.993706464767456 0.7669448852539062
11.420587539672852 -0.39881566166877747 1.2434470653533936
3.8660340309143066 -1.8872616291046143 0.44457772374153137
2.457181215286255 -2.9293928146362305 0.2968868315219879
3.0852558612823486 3.2477736473083496 0.3053886592388153
7.276926040649414 2.953373908996582 0.7589643597602844
11.414081573486328 -0.4404798746109009 1.2429062128067017
3.8723349571228027 -1.9079440832138062 0.4476264715194702
2.433570384979248 -2.922935962677002 0.2973300516605377
3.1099464893341064 3.2520995140075684 0.3036075830459595
7.269473552703857 2.9193623065948486 0.7543060779571533
11.41239070892334 -0.4823116064071655 1.2429062128067017
3.87408185005188 -1.9264832735061646 0.4501682221889496
2.4322338104248047 -2.943202018737793 0.30116474628448486
7.280368804931641 2.8927958011627197 0.7515714764595032
11.401138305664062 -0.5217106938362122 1.2378406524658203
3.8661065101623535 -1.9419132471084595 0.45243358612060547
2.4076271057128906 -2.93735933303833 0.3022436499595642
7.305062770843506 2.8716511726379395 0.7502641677856445
11.399149894714355 -0.5634944438934326 1.2378406524658203
3.859844923019409 -1.9539777040481567 0.45394375920295715
2.384641408920288 -2.9301187992095947 0.3032945692539215
4.353394985198975 4.451753616333008 0.4092022776603699
7.3204216957092285 2.8467564582824707 0.7479982376098633
11.396796226501465 -0.6092488765716553 1.2378406524658203
3.8695383071899414 -1.9784387350082397 0.4575479030609131
2.3633692264556885 -2.9279096126556396 0.30406439304351807
4.366379737854004 4.432415008544922 0.40453076362609863
7.311484336853027 2.815404176712036 0.7433673143386841
11.3798246383667 -0.6461932063102722 1.2362233400344849
3.849626302719116 -1.9843883514404297 0.4567332863807678
2.3379273414611816 -2.916123628616333 0.3046601414680481
4.396852493286133 4.430748462677002 0.40147069096565247
7.308040618896484 2.7833645343780518 0.7392207980155945
11.382340431213379 -0.6881980299949646 1.2367624044418335
3.8642418384552 -2.009882926940918 0.46087563037872314
2.3239877223968506 -2.9206063747406006 0.30685970187187195
7.313775539398193 2.754896402359009 0.7360221743583679
11.38923168182373 -0.7305204272270203 1.2418243885040283
3.8609654903411865 -2.0261926651000977 0.46444591879844666
2.306957721710205 -2.921114921569824 0.3086389899253845
7.30994987487793 2.7229037284851074 0.7332543730735779
11.361599922180176 -0.7685798406600952 1.241107702255249
3.8577637672424316 -2.0425806045532227 0.4664992392063141
2.2930285930633545 -2.925459146499634 0.31082090735435486
3.713076114654541 3.661590099334717 0.32626017928123474
7.343596458435059 2.7048282623291016 0.7314964532852173
11.368622779846191 -0.8109242916107178 1.242191195487976
3.837024211883545 -2.049640655517578 0.4656645655632019
2.266894578933716 -2.9140520095825195 0.31067076325416565
3.666008710861206 3.5887677669525146 0.31737110018730164
