# .PCD v0.7 - Point Cloud Data file format
VERSION 0.7
FIELDS x y z
SIZE 4 4 4
TYPE F F F
COUNT 1 1 1
WIDTH 821
HEIGHT 1
VIEWPOINT 0 0 0 1 0 0 0
POINTS 821
DATA ascii
3.1813740730285645 -1.5153933763504028 -0.08981364965438843
1.4256500005722046 -1.668631672859192 -0.03486061468720436
3.0792734622955322 3.29288649559021 -0.12277921289205551
7.309942245483398 3.0233941078186035 -0.266565203666687
6.822911262512207 -0.2120346575975418 -0.2276412546634674
3.125763416290283 -1.5043283700942993 -0.08659598976373672
1.4157270193099976 -1.670549750328064 -0.03287029638886452
7.311637878417969 2.9927597045898438 -0.26898619532585144
6.8371124267578125 -0.23636774718761444 -0.2281412035226822
3.0938169956207275 -1.5016096830368042 -0.08404669165611267
1.40375816822052 -1.6676069498062134 -0.030817998573184013
7.308532238006592 2.9602603912353516 -0.2726045548915863
6.831206798553467 -0.26123446226119995 -0.2279745489358902
3.043182611465454 -1.4914984703063965 -0.08105059713125229
1.38483726978302 -1.6574219465255737 -0.027896566316485405
7.296008110046387 2.924104928970337 -0.2758563756942749
6.770288944244385 -0.2837591767311096 -0.22597476840019226
3.0108509063720703 -1.489363193511963 -0.078574538230896
1.3851511478424072 -1.670201301574707 -0.02613218128681183
7.297756671905518 2.892333507537842 -0.27961596846580505
2.9646403789520264 -1.481346845626831 -0.07578693330287933
1.362568736076355 -1.6564593315124512 -0.023959381505846977
2.804107427597046 2.8915939331054688 -0.12869438529014587
7.298912525177002 2.861882209777832 -0.2819966673851013
7.247094631195068 -0.3569778501987457 -0.24450577795505524
2.9284861087799072 -1.4754376411437988 -0.0738421306014061
1.3475884199142456 -1.649365782737732 -0.022304899990558624
2.7936551570892334 2.8597676753997803 -0.13122521340847015
7.2905802726745605 2.827829599380493 -0.28537219762802124
7.35050630569458 -0.39036962389945984 -0.24675732851028442
2.886943817138672 -1.4690678119659424 -0.07068022340536118
1.3567098379135132 -1.6742017269134521 -0.020310094580054283
7.291426181793213 2.7974560260772705 -0.2890966832637787
11.564863204956055 -0.6567004919052124 -0.3883119523525238
2.8459975719451904 -1.4613884687423706 -0.06813250482082367
1.3850443363189697 -1.7220321893692017 -0.018899939954280853
7.281883716583252 2.7661280632019043 -0.2910759150981903
11.57747745513916 -0.6999963521957397 -0.3847658038139343
2.8056623935699463 -1.4524539709091187 -0.06507523357868195
7.30634069442749 2.7433624267578125 -0.29572245478630066
11.549764633178711 -0.7408172488212585 -0.38797688484191895
2.7914681434631348 -1.458103895187378 -0.06431963294744492
7.340570449829102 2.722644090652466 -0.30076849460601807
11.541712760925293 -0.7868350148200989 -0.3878093659877777
2.7546708583831787 -1.4529876708984375 -0.06197429448366165
7.401898384094238 2.714571237564087 -0.3083839416503906
11.55889892578125 -0.82855224609375 -0.38645684719085693
2.7137982845306396 -1.4447753429412842 -0.059568725526332855
7.410758018493652 2.6899735927581787 -0.3111359477043152
11.540837287902832 -0.8697855472564697 -0.38595691323280334
2.7041077613830566 -1.4523613452911377 -0.057864706963300705
1.9748297929763794 -2.5496087074279785 -0.012945945374667645
2.4201059341430664 2.355916976928711 -0.13092975318431854
7.232869625091553 2.594015598297119 -0.3045901954174042
11.517644882202148 -0.9105036854743958 -0.38529032468795776
2.7080953121185303 -1.466094732284546 -0.05644078925251961
2.103559970855713 -2.7344887256622314 -0.010236340574920177
2.439385414123535 2.3573334217071533 -0.13565537333488464
7.270379066467285 2.577432632446289 -0.3111637234687805
11.53919792175293 -0.9547777771949768 -0.3841027319431305
2.7071170806884766 -1.4784207344055176 -0.05491737648844719
2.0540847778320312 -2.6905221939086914 -0.007089522201567888
2.4307103157043457 2.330153226852417 -0.13759490847587585
7.271081924438477 2.5448720455169678 -0.31479430198669434
11.515357971191406 -0.9993630051612854 -0.3834396004676819
2.696815013885498 -1.4868801832199097 -0.05267844721674919
2.04327130317688 -2.6987504959106445 -0.003544763196259737
2.449207305908203 2.332348585128784 -0.14056852459907532
7.265214443206787 2.515806198120117 -0.3168656527996063
11.506755828857422 -1.039097547531128 -0.38529032468795776
2.7049875259399414 -1.503104329109192 -0.05239490047097206
2.1244583129882812 -2.8254024982452393 -0.0012339476961642504
2.4431283473968506 2.309544086456299 -0.14267192780971527
7.26477575302124 2.4858720302581787 -0.3204742670059204
2.690777063369751 -1.5081416368484497 -0.04953380301594734
2.108107566833496 -2.8251547813415527 0.0024609139654785395
2.4555296897888184 2.3034775257110596 -0.14582209289073944
7.25996208190918 2.453125476837158 -0.32252374291419983
2.689605236053467 -1.5204664468765259 -0.04799636825919151
2.09773588180542 -2.8328588008880615 0.00615228246897459
2.455733060836792 2.2884058952331543 -0.14890459179878235
7.259212493896484 2.423264503479004 -0.3274461328983307
10.4158296585083 -1.0561647415161133 -0.3473004698753357
2.6883649826049805 -1.5327945947647095 -0.04753391817212105
2.0873360633850098 -2.840524435043335 0.008613190613687038
2.4611353874206543 2.275050401687622 -0.15160787105560303
7.225184917449951 2.3825087547302246 -0.3295060098171234
10.4417085647583 -1.0974677801132202 -0.348295122385025
2.6870839595794678 -1.5451419353485107 -0.04598773643374443
2.0916357040405273 -2.8683483600616455 0.011772224679589272
2.4685678482055664 2.2667858600616455 -0.15453261137008667
7.238097190856934 2.358785390853882 -0.3323797285556793
2.694131851196289 -1.5629903078079224 -0.04403580725193024
2.0781688690185547 -2.8719327449798584 0.01546793058514595
7.232317924499512 2.3276143074035645 -0.33437755703926086
11.466134071350098 -1.2922124862670898 -0.38076263666152954
2.6927199363708496 -1.575390338897705 -0.042473018169403076
2.0588715076446533 -2.8673343658447266 0.018482953310012817
2.6700563430786133 2.4159693717956543 -0.17296116054058075
7.222279071807861 2.292429208755493 -0.34011080861091614
11.481109619140625 -1.3365329504013062 -0.3834396004676819
2.691240072250366 -1.5877933502197266 -0.04199572280049324
2.0483405590057373 -2.874850034713745 0.020947318524122238
2.694063901901245 2.418943166732788 -0.1770804077386856
7.206687927246094 2.258439064025879 -0.3416260778903961
2.685438871383667 -1.5976682901382446 -0.038723502308130264
2.0204553604125977 -2.8578197956085205 0.025045260787010193
7.214412212371826 2.23323392868042 -0.3442623019218445
2.6838579177856445 -1.6100754737854004 -0.03823921084403992
2.0099568367004395 -2.8651909828186035 0.027488652616739273
2.6284189224243164 2.3270647525787354 -0.17722147703170776
7.208103179931641 2.2023627758026123 -0.34621018171310425
9.205192565917969 -1.175946593284607 -0.30460652709007263
2.6822335720062256 -1.6224994659423828 -0.03665893152356148
1.9937083721160889 -2.8643016815185547 0.03167380020022392
7.1872029304504395 2.1672072410583496 -0.35007444024086
2.6848268508911133 -1.637539267539978 -0.03458038344979286
1.9746601581573486 -2.8592288494110107 0.03396356478333473
2.5586042404174805 2.2320125102996826 -0.17794224619865417
7.233217239379883 2.1521925926208496 -0.355889230966568
2.674562931060791 -1.6447588205337524 -0.03288140147924423
1.96979820728302 -2.874664783477783 0.03771059215068817
2.536860466003418 2.1959478855133057 -0.17819127440452576
7.226931095123291 2.120150089263916 -0.3578116297721863
11.463777542114258 -1.5927700996398926 -0.3758569359779358
2.6770339012145996 -1.6598314046859741 -0.030787117779254913
1.9451749324798584 -2.86116361618042 0.04045930132269859
2.5629141330718994 2.2036757469177246 -0.1830567866563797
7.210545539855957 2.0866713523864746 -0.35924553871154785
11.433061599731445 -1.631237506866455 -0.3770611584186554
2.670945644378662 -1.6696404218673706 -0.029137853533029556
1.9374459981918335 -2.8723816871643066 0.044146034866571426
2.5632565021514893 2.187680721282959 -0.18545685708522797
7.213221549987793 2.058824300765991 -0.36162495613098145
2.6732804775238037 -1.684757947921753 -0.02757585048675537
1.915761113166809 -2.8628106117248535 0.046897292137145996
2.586369276046753 2.1910736560821533 -0.18951401114463806
7.220474720001221 2.03230357170105 -0.3668617606163025
8.322036743164062 -1.2511622905731201 -0.2732914984226227
2.6713156700134277 -1.6972312927246094 -0.026514731347560883
1.9052273035049438 -2.8697705268859863 0.05050452798604965
2.6328742504119873 2.2131619453430176 -0.19470635056495667
7.189601898193359 1.993853211402893 -0.36751213669776917
8.18902587890625 -1.261874794960022 -0.26762592792510986
2.669302225112915 -1.7097169160842896 -0.024343611672520638
1.8891663551330566 -2.868338108062744 0.05395463481545448
2.598675489425659 2.16821026802063 -0.19455134868621826
7.201554775238037 1.9687714576721191 -0.370364248752594
8.204136848449707 -1.2950044870376587 -0.2668219208717346
2.6630282402038574 -1.7194955348968506 -0.022683849558234215
1.8704105615615845 -2.86264705657959 0.056703146547079086
7.208596706390381 1.9423295259475708 -0.3729702830314636
8.204222679138184 -1.3258552551269531 -0.26843297481536865
2.6609113216400146 -1.7319802045822144 -0.02050311304628849
1.8625974655151367 -2.873635768890381 0.0597744882106781
7.195775032043457 1.9119582176208496 -0.3771703541278839
8.199590682983398 -1.3544929027557373 -0.26698246598243713
2.6629090309143066 -1.747209072113037 -0.020011812448501587
1.841209053993225 -2.8635783195495605 0.06239639222621918
7.1984333992004395 1.8817609548568726 -0.37951457500457764
8.194132804870605 -1.3874050378799438 -0.265531986951828
2.6481575965881348 -1.7514482736587524 -0.01773245260119438
1.8252885341644287 -2.861821413040161 0.06576775014400482
7.180328845977783 1.8516122102737427 -0.38082945346832275
8.193963050842285 -1.4182889461517334 -0.2642402648925781
2.6625311374664307 -1.7750163078308105 -0.015638086944818497
1.798713207244873 -2.843085289001465 0.06870970875024796
8.188663482666016 -1.4483036994934082 -0.2656916379928589
2.6394095420837402 -1.7736096382141113 -0.014985340647399426
1.791409969329834 -2.853539228439331 0.07116399705410004
2.601590156555176 2.0760786533355713 -0.20940639078617096
3.153846502304077 0.7869269847869873 -0.17035353183746338
8.17350959777832 -1.4765381813049316 -0.26392266154289246
2.64086651802063 -1.7893457412719727 -0.012805446051061153
1.7756142616271973 -2.851534128189087 0.07447058707475662
2.671992301940918 2.115518093109131 -0.2174038141965866
3.146954298019409 0.7729660272598267 -0.17096133530139923
8.162819862365723 -1.5069955587387085 -0.26521262526512146
2.6632003784179688 -1.8187562227249146 -0.010694485157728195
1.75460946559906 -2.8409550189971924 0.07694126665592194
2.7062978744506836 2.128117084503174 -0.22263646125793457
3.1251492500305176 0.756630539894104 -0.1713278442621231
8.137643814086914 -1.5332112312316895 -0.26312869787216187
2.6565208435058594 -1.8285080194473267 -0.009005887433886528
1.7467602491378784 -2.8515708446502686 0.0799747109413147
2.753257989883423 2.1487603187561035 -0.22891093790531158
3.118258476257324 0.7422989010810852 -0.17191468179225922
8.122743606567383 -1.5583137273788452 -0.2613675594329834
2.7607274055480957 -1.9151848554611206 -0.0070371623151004314
1.7284592390060425 -2.845052719116211 0.08368321508169174
2.745147228240967 2.126286506652832 -0.2312392145395279
3.1160385608673096 0.7297127842903137 -0.17276401817798615
8.11693286895752 -1.58806574344635 -0.2628110945224762
2.7741801738739014 -1.9396169185638428 -0.005907936487346888
1.7102506160736084 -2.8384740352630615 0.08561981469392776
3.1088733673095703 0.7160255908966064 -0.17389541864395142
8.091127395629883 -1.6152982711791992 -0.2636159360408783
2.7670540809631348 -1.9497729539871216 -0.004726349841803312
1.6921054124832153 -2.831786870956421 0.08811119943857193
3.10667085647583 0.7029678225517273 -0.1747351437807083
8.0748291015625 -1.645777940750122 -0.2618583142757416
2.8210411071777344 -2.0033278465270996 -0.002415535505861044
1.6842149496078491 -2.8421881198883057 0.09170439839363098
2.8669445514678955 2.171401262283325 -0.24833369255065918
3.094486951828003 0.6882981061935425 -0.17612671852111816
8.049798011779785 -1.668498158454895 -0.25978830456733704
2.838076114654541 -2.031113862991333 0.0
1.6585525274276733 -2.822418212890625 0.09372882544994354
2.8746745586395264 2.1607213020324707 -0.25209975242614746
3.1018056869506836 0.6780045032501221 -0.17751237750053406
8.135932922363281 -1.7204431295394897 -0.26278889179229736
2.7657272815704346 -1.9947054386138916 0.0011903144186362624
1.6556951999664307 -2.841346025466919 0.09760194271802902
3.079829454421997 0.6608204245567322 -0.17886574566364288
9.03891658782959 -1.9427266120910645 -0.2937767505645752
2.7583975791931152 -2.004828691482544 0.002380628837272525
1.637725591659546 -2.834338665008545 0.1000136211514473
2.914431571960449 2.1565659046173096 -0.2617915868759155
3.0870537757873535 0.650544285774231 -0.18025046586990356
9.0802583694458 -1.9881187677383423 -0.29374241828918457
2.8276703357696533 -2.0710580348968506 0.004893901292234659
1.6223223209381104 -2.8315882682800293 0.10198654979467392
2.9133450984954834 2.140847682952881 -0.264226496219635
3.0844364166259766 0.6381946802139282 -0.18161450326442719
9.077737808227539 -2.0224618911743164 -0.2955235242843628
2.739600658416748 -2.0220229625701904 0.00594284338876605
1.6099146604537964 -2.832810878753662 0.104673832654953
2.913335084915161 2.123661518096924 -0.26601454615592957
3.0818474292755127 0.6253286600112915 -0.18352210521697998
9.070263862609863 -2.0557198524475098 -0.2955235242843628
2.768277406692505 -2.0589041709899902 0.007225657347589731
1.5872005224227905 -2.8168270587921143 0.10725699365139008
2.98551082611084 2.1595616340637207 -0.2757602035999298
3.069338321685791 0.6110862493515015 -0.18428686261177063
9.233059883117676 -2.128225326538086 -0.30273517966270447
2.7847142219543457 -2.0870249271392822 0.009717981331050396
1.5743821859359741 -2.8181803226470947 0.1099083349108696
2.916175365447998 2.093170166015625 -0.2730560600757599
3.0665314197540283 0.5988510251045227 -0.18617427349090576
9.244607925415039 -2.1666011810302734 -0.3050311207771301
2.7570929527282715 -2.082148790359497 0.010854184627532959
1.5518996715545654 -2.8020074367523193 0.11129384487867355
3.004722833633423 2.1400845050811768 -0.28579193353652954
3.0635411739349365 0.5871729254722595 -0.18859905004501343
9.265283584594727 -2.2090108394622803 -0.30931922793388367
1.5415817499160767 -2.807607889175415 0.1135299801826477
2.951655626296997 2.102288007736206 -0.285198837518692
3.0730488300323486 0.5889952182769775 -0.19411779940128326
9.250162124633789 -2.2054054737091064 -0.3254299461841583
2.753431558609009 -2.095275402069092 0.00603883620351553
1.539232850074768 -2.8033299446105957 0.11000387370586395
2.9233572483062744 2.0990984439849854 -0.2826091945171356
3.065871477127075 0.5992776155471802 -0.19544388353824615
9.22877025604248 -2.164588451385498 -0.3310216963291168
2.757106304168701 -2.0821588039398193 0.0018090336816385388
1.556824803352356 -2.8108999729156494 0.10659389197826385
3.06844162940979 0.6120213866233826 -0.19575610756874084
9.109764099121094 -2.10148024559021 -0.3346434533596039
2.756716728210449 -2.066041946411133 -0.0030063290614634752
1.5715713500976562 -2.8143019676208496 0.10242486745119095
2.867485284805298 2.09177303314209 -0.2749782204627991
3.0857388973236084 0.6272398233413696 -0.19700494408607483
9.029520988464355 -2.048142433166504 -0.3362719714641571
2.6880393028259277 -1.9992271661758423 -0.005846850108355284
1.5843886137008667 -2.8129847049713135 0.09863939881324768
2.8960657119750977 2.1289284229278564 -0.2765721082687378
3.0786101818084717 0.6369891166687012 -0.19724144041538239
9.041670799255371 -2.016082763671875 -0.3413040041923523
2.662816047668457 -1.9660683870315552 -0.009243251755833626
1.6095582246780396 -2.8333349227905273 0.09557449817657471
2.8927392959594727 2.1420774459838867 -0.27507102489471436
3.076028347015381 0.6493423581123352 -0.19724144041538239
8.999958038330078 -1.9721832275390625 -0.3458954393863678
2.645798921585083 -1.9385602474212646 -0.011449337005615234
1.6199811697006226 -2.8275020122528076 0.09216205030679703
2.881025791168213 2.1497981548309326 -0.2721805274486542
3.0788044929504395 0.6606005430221558 -0.19645535945892334
8.968326568603516 -1.9291924238204956 -0.34599584341049194
2.6286110877990723 -1.911199927330017 -0.0147479809820652
1.6353896856307983 -2.830296039581299 0.08845122158527374
2.8453075885772705 2.139425277709961 -0.26829537749290466
3.0762453079223633 0.6724174618721008 -0.19645535945892334
8.183234214782715 -1.72895348072052 -0.3198462128639221
2.6274774074554443 -1.8956936597824097 -0.01753000169992447
1.6483218669891357 -2.828692674636841 0.08458669483661652
3.107617139816284 0.6923571825027466 -0.19863472878932953
8.032804489135742 -1.666438341140747 -0.3180276155471802
2.6350553035736084 -1.885123372077942 -0.01979191228747368
1.662248969078064 -2.826448917388916 0.08070983737707138
3.1102051734924316 0.7037675976753235 -0.19838953018188477
8.053489685058594 -1.6399648189544678 -0.32004308700561523
2.633121967315674 -1.8705706596374512 -0.023113198578357697
1.6813523769378662 -2.838487148284912 0.07774721831083298
2.754049062728882 2.1201376914978027 -0.2558417320251465
3.107196092605591 0.7167816162109375 -0.19894607365131378
8.07392406463623 -1.6133291721343994 -0.32637491822242737
2.640592098236084 -1.8599733114242554 -0.025931822136044502
1.7030401229858398 -2.848956823348999 0.07416334003210068
2.7543158531188965 2.1364665031433105 -0.2535340189933777
3.114553928375244 0.7293651103973389 -0.1990104615688324
8.089808464050293 -1.5842249393463135 -0.328209787607193
2.6467299461364746 -1.8511958122253418 -0.028186708688735962
1.7125235795974731 -2.8433690071105957 0.07010815292596817
2.731633186340332 2.133418083190918 -0.24966350197792053
3.1264915466308594 0.7442587018013 -0.19882003962993622
8.095391273498535 -1.5545310974121094 -0.3325260281562805
2.64526104927063 -1.8357669115066528 -0.030909305438399315
1.7281603813171387 -2.845679998397827 0.06683289259672165
2.7239317893981934 2.1435229778289795 -0.2472437024116516
3.1333115100860596 0.7586066722869873 -0.1994374841451645
8.110682487487793 -1.5266655683517456 -0.3372504711151123
2.6437172889709473 -1.8203755617141724 -0.033054206520318985
1.746445894241333 -2.852174997329712 0.06363174319267273
2.6142170429229736 2.07348895072937 -0.23566491901874542
3.1402697563171387 0.7724866271018982 -0.19892612099647522
8.116165161132812 -1.496917486190796 -0.3386908769607544
2.642084836959839 -1.8050122261047363 -0.03630206733942032
1.7648005485534668 -2.8585712909698486 0.060399096459150314
2.610623836517334 2.086272716522217 -0.23368416726589203
3.171376943588257 0.792477011680603 -0.1999339610338211
8.121538162231445 -1.4671496152877808 -0.34013134241104126
2.6528050899505615 -1.7981104850769043 -0.03803681209683418
1.7779453992843628 -2.856388568878174 0.056378480046987534
8.136523246765137 -1.4390816688537598 -0.3448694944381714
2.6475298404693604 -1.7790662050247192 -0.04008566588163376
1.7920864820480347 -2.853510618209839 0.05293365940451622
7.244192600250244 1.8680808544158936 -0.45494741201400757
8.156697273254395 -1.4103723764419556 -0.3469397723674774
2.6658616065979004 -1.778581142425537 -0.04307081177830696
1.814436674118042 -2.869046211242676 0.049179039895534515
7.2755889892578125 1.9060008525848389 -0.4573754072189331
8.151779174804688 -1.3787702322006226 -0.3508499562740326
2.6520910263061523 -1.7540497779846191 -0.04606460779905319
1.8259657621383667 -2.861781358718872 0.045624151825904846
7.263884544372559 1.931412696838379 -0.45444825291633606
8.141932487487793 -1.3464282751083374 -0.3516543209552765
2.653693675994873 -1.7424880266189575 -0.04765442758798599
1.8408809900283813 -2.864166736602783 0.04159888997673988
7.170022964477539 1.93462073802948 -0.44901663064956665
8.15156078338623 -1.3173447847366333 -0.3561907410621643
2.655829906463623 -1.7299929857254028 -0.05089858919382095
1.8568260669708252 -2.8658270835876465 0.038145121186971664
2.633781909942627 2.201402425765991 -0.2249867469072342
7.220455646514893 1.9780023097991943 -0.45002445578575134
8.141695022583008 -1.2836918830871582 -0.35698288679122925
2.6621298789978027 -1.7202324867248535 -0.05255817994475365
1.8700722455978394 -2.86322021484375 0.034619759768247604
2.5952529907226562 2.185405731201172 -0.22059416770935059
7.227734565734863 2.0085043907165527 -0.44830596446990967
8.373456001281738 -1.2887980937957764 -0.3669351041316986
2.6725943088531494 -1.7131415605545044 -0.05485733225941658
1.8888211250305176 -2.868903636932373 0.031174642965197563
2.564892530441284 2.175187110900879 -0.21629995107650757
7.220475196838379 2.0350241661071777 -0.4456873834133148
8.639873504638672 -1.2974048852920532 -0.3799267113208771
2.666175127029419 -1.695271611213684 -0.056252479553222656
1.8993430137634277 -2.8619911670684814 0.026978150010108948
2.5676891803741455 2.195340156555176 -0.21372516453266144
7.222280502319336 2.065500020980835 -0.44496938586235046
8.629545211791992 -1.2635293006896973 -0.3838416635990143
2.6686782836914062 -1.6818575859069824 -0.059466827660799026
1.9163939952850342 -2.862675189971924 0.023449189960956573
2.5415968894958496 2.187662124633789 -0.20980557799339294
7.233985424041748 2.097560167312622 -0.4435229003429413
8.65383243560791 -1.234704852104187 -0.3862467110157013
2.669975996017456 -1.67033052444458 -0.06102161854505539
1.931477427482605 -2.8646116256713867 0.020502261817455292
2.5524959564208984 2.213381767272949 -0.20959767699241638
7.188823223114014 2.1103334426879883 -0.43855634331703186
8.692940711975098 -1.2062451839447021 -0.3923869729042053
2.6675384044647217 -1.6552332639694214 -0.06356752663850784
1.9447869062423706 -2.8616669178009033 0.016304805874824524
2.551630735397339 2.229853630065918 -0.20725978910923004
7.199802875518799 2.143618106842041 -0.43972504138946533
8.890356063842773 -1.2004432678222656 -0.40109673142433167
2.6778061389923096 -1.6480417251586914 -0.06586390733718872
1.9665729999542236 -2.871032476425171 0.012754837982356548
2.6259891986846924 2.3118646144866943 -0.21092206239700317
7.220716953277588 2.178687810897827 -0.43884536623954773
8.815387725830078 -1.1574374437332153 -0.39907529950141907
2.675265073776245 -1.6329888105392456 -0.067295603454113
1.9794292449951172 -2.8682749271392822 0.009123697876930237
2.6258883476257324 2.3272781372070312 -0.20907430350780487
7.227222442626953 2.2095835208892822 -0.43575966358184814
8.913642883300781 -1.1371204853057861 -0.4049034118652344
2.6729214191436768 -1.6175037622451782 -0.0692620798945427
2.0042080879211426 -2.88153076171875 0.005513492971658707
7.228756904602051 2.2390568256378174 -0.4336937665939331
11.450875282287598 -1.4161351919174194 -0.5239425301551819
2.6830649375915527 -1.610236644744873 -0.07210364192724228
2.020498275756836 -2.882357120513916 0.0018430675845593214
7.234394073486328 2.271282434463501 -0.43455198407173157
11.47077465057373 -1.3759297132492065 -0.5266393423080444
2.6808598041534424 -1.5943105220794678 -0.07459524273872375
2.0320522785186768 -2.874222993850708 -0.0024574233684688807
2.4928410053253174 2.259577512741089 -0.19222913682460785
7.2167229652404785 2.294825792312622 -0.43001478910446167
11.465726852416992 -1.3327139616012573 -0.5281985998153687
2.6774885654449463 -1.580310344696045 -0.07598407566547394
2.0154707431793213 -2.83080792427063 -0.005458514671772718
2.506783962249756 2.289008378982544 -0.19097808003425598
7.241668224334717 2.3320181369781494 -0.42934340238571167
11.455460548400879 -1.288985013961792 -0.5315369367599487
2.6702749729156494 -1.5628845691680908 -0.07777764648199081
2.0141677856445312 -2.8071444034576416 -0.00964816752821207
2.4801042079925537 2.281371831893921 -0.18722131848335266
7.204326629638672 2.350562334060669 -0.4250078499317169
10.566253662109375 -1.1497284173965454 -0.4919375777244568
2.6808154582977295 -1.554639458656311 -0.07952592521905899
2.4685819149017334 2.2867321968078613 -0.18400752544403076
7.233796119689941 2.3895485401153564 -0.42325884103775024
10.416600227355957 -1.092990756034851 -0.4847712218761444
2.6821136474609375 -1.5422837734222412 -0.08155764639377594
2.452976703643799 2.289039134979248 -0.18111923336982727
7.239193439483643 2.420795440673828 -0.4240909516811371
10.405545234680176 -1.053287148475647 -0.4859030544757843
2.6833436489105225 -1.5299315452575684 -0.0841214582324028
2.451960563659668 2.3049614429473877 -0.1787215918302536
7.267882823944092 2.461456537246704 -0.42229214310646057
2.6845433712005615 -1.5176048278808594 -0.08560002595186234
2.4399828910827637 2.310606002807617 -0.17552398145198822
7.282565593719482 2.496220111846924 -0.4209786355495453
10.88016128540039 -1.0208148956298828 -0.5134372711181641
2.6900217533111572 -1.5077182054519653 -0.08829113095998764
1.2349246740341187 -1.654969334602356 -0.016218306496739388
2.436009407043457 2.322213888168335 -0.1734352558851242
7.27829122543335 2.5246031284332275 -0.41721802949905396
10.670101165771484 -0.959790050983429 -0.503346860408783
2.6905977725982666 -1.4963375329971313 -0.08976004272699356
1.2494049072265625 -1.662842035293579 -0.018514206632971764
2.434385299682617 2.3385729789733887 -0.17100413143634796
7.292681694030762 2.5595779418945312 -0.41587215662002563
10.728195190429688 -0.9253895282745361 -0.5078075528144836
2.700399398803711 -1.488856315612793 -0.09152036905288696
1.2615149021148682 -1.6662075519561768 -0.020791763439774513
2.440237283706665 2.3614532947540283 -0.16964533925056458
7.340234279632568 2.605081796646118 -0.41773656010627747
10.721073150634766 -0.8889684081077576 -0.5110916495323181
2.7016680240631104 -1.4760570526123047 -0.09298399090766907
1.2888296842575073 -1.689382791519165 -0.022994264960289
2.4495508670806885 2.387913703918457 -0.16790752112865448
7.471750259399414 2.6826326847076416 -0.42299884557724
10.778937339782715 -0.8539997935295105 -0.5155888795852661
2.6850438117980957 -1.454221248626709 -0.09382809698581696
1.2919503450393677 -1.6806637048721313 -0.02516007423400879
2.6119260787963867 2.564940929412842 -0.17647875845432281
7.390740394592285 2.6870884895324707 -0.41489076614379883
10.832222938537598 -0.8125776648521423 -0.5179703831672668
2.721104145050049 -1.4608781337738037 -0.09759828448295593
1.2980849742889404 -1.6758955717086792 -0.02737996354699135
2.673628568649292 2.64485239982605 -0.1780121624469757
7.291535377502441 2.682762622833252 -0.4058176875114441
10.775346755981445 -0.7686059474945068 -0.515112578868866
2.757772922515869 -1.4663339853286743 -0.1008843183517456
1.3109381198883057 -1.6785279512405396 -0.029739443212747574
2.6892588138580322 2.67895245552063 -0.1763545125722885
7.301453113555908 2.713935613632202 -0.40414193272590637
11.520277976989746 -0.7833536863327026 -0.5505965352058411
2.7846736907958984 -1.4688130617141724 -0.10333985090255737
1.3226611614227295 -1.6820104122161865 -0.03174637258052826
2.7067863941192627 2.7181484699249268 -0.17486338317394257
7.2860236167907715 2.741539239883423 -0.39980682730674744
11.5481538772583 -0.7386900782585144 -0.5538069605827332
2.8259341716766357 -1.476106882095337 -0.10632146149873734
1.3231691122055054 -1.668825387954712 -0.03382829204201698
2.740018129348755 2.769829511642456 -0.17419569194316864
7.3049635887146 2.7763545513153076 -0.39998161792755127
11.545724868774414 -0.6940317153930664 -0.5576054453849792
2.8484947681427 -1.475888729095459 -0.10922779142856598
1.3349109888076782 -1.672214150428772 -0.03622781112790108
7.298125267028809 2.8087973594665527 -0.39614272117614746
2.8898956775665283 -1.4826551675796509 -0.11285647749900818
1.3415883779525757 -1.666811466217041 -0.03846847265958786
2.7870988845825195 2.857043743133545 -0.17147301137447357
7.312171459197998 2.842078924179077 -0.3946691155433655
7.3760271072387695 -0.39172497391700745 -0.35608741641044617
2.9261951446533203 -1.488398551940918 -0.11521782726049423
1.340791940689087 -1.654558777809143 -0.04014717414975166
2.879951238632202 2.9760336875915527 -0.17357458174228668
7.311192035675049 2.8725876808166504 -0.3910585939884186
2.9722394943237305 -1.4968310594558716 -0.11911948025226593
1.3600471019744873 -1.6646145582199097 -0.042775191366672516
7.3146653175354 2.904945135116577 -0.3890571594238281
7.2589616775512695 -0.3308970630168915 -0.35157737135887146
3.0084407329559326 -1.5025765895843506 -0.12154533714056015
1.3655304908752441 -1.6600598096847534 -0.04502619802951813
7.312913417816162 2.936807632446289 -0.3854246735572815
6.876013278961182 -0.285785973072052 -0.33297157287597656
3.0362613201141357 -1.5025924444198608 -0.12422217428684235
1.3715801239013672 -1.655012845993042 -0.046901997178792953
7.320796966552734 2.9711790084838867 -0.3822649121284485
6.881913661956787 -0.26317358016967773 -0.333213210105896
3.117915391921997 -1.5288007259368896 -0.13036730885505676
1.3904250860214233 -1.6652907133102417 -0.04923150688409805
7.323904037475586 3.0037519931793213 -0.37884506583213806
11.105244636535645 -0.3819820284843445 -0.5415143370628357
3.114447832107544 -1.5129663944244385 -0.13180512189865112
1.3964853286743164 -1.6601431369781494 -0.051503315567970276
3.044097661972046 3.2621114253997803 -0.16828665137290955
7.299065113067627 3.024864435195923 -0.37674903869628906
11.126655578613281 -0.33800628781318665 -0.5424878001213074
3.165461301803589 -1.5220729112625122 -0.13554617762565613
1.4030965566635132 -1.6544746160507202 -0.0541536845266819
3.0899438858032227 3.335667848587036 -0.16752246022224426
7.292184352874756 3.0548739433288574 -0.3728475570678711
6.739595413208008 -0.18001382052898407 -0.3285592496395111
3.216327428817749 -1.5313540697097778 -0.13933950662612915
1.4123668670654297 -1.6530847549438477 -0.056175898760557175
7.294916152954102 3.087496519088745 -0.3694065511226654
6.760180950164795 -0.155770942568779 -0.3295327425003052
3.2580020427703857 -1.5365735292434692 -0.14278903603553772
1.4216443300247192 -1.6516475677490234 -0.058206796646118164
7.352615833282471 3.1437430381774902 -0.3687134385108948
3.3263940811157227 -1.555366039276123 -0.14684344828128815
1.4336259365081787 -1.6544395685195923 -0.06038423255085945
2.681969404220581 2.9578003883361816 -0.13593925535678864
7.351439952850342 3.1721160411834717 -0.3663792014122009
10.560952186584473 -0.16774839162826538 -0.5184297561645508
3.35915470123291 -1.5557060241699219 -0.1512727439403534
1.4330642223358154 -1.6415952444076538 -0.062390491366386414
7.3617706298828125 3.2116892337799072 -0.3619147837162018
10.601670265197754 -0.1258290559053421 -0.5166898369789124
3.3970911502838135 -1.5567443370819092 -0.15465837717056274
1.449503779411316 -1.6470346450805664 -0.06511740386486053
7.355201721191406 3.239431142807007 -0.35933446884155273
11.645553588867188 -0.0995965301990509 -0.5716209411621094
3.4570398330688477 -1.5696381330490112 -0.15846483409404755
1.4576667547225952 -1.6464341878890991 -0.06680093705654144
7.33888578414917 3.264413356781006 -0.35490554571151733
3.507704257965088 -1.5786329507827759 -0.1625639796257019
1.4669785499572754 -1.6447659730911255 -0.06887606531381607
7.404502868652344 3.326162338256836 -0.35440751910209656
3.7050554752349854 -1.6511468887329102 -0.17284703254699707
1.4729396104812622 -1.6393141746520996 -0.07156861573457718
7.411799430847168 3.3590221405029297 -0.3510192036628723
1.4788957834243774 -1.6338578462600708 -0.07349179685115814
7.408097743988037 3.3916919231414795 -0.34718412160873413
3.8954124450683594 -1.7018637657165527 -0.18560048937797546
1.484830379486084 -1.6283783912658691 -0.07541492581367493
4.593455791473389 2.1234474182128906 -0.21298342943191528
5.912650108337402 0.05779115855693817 -0.2891906499862671
3.892688274383545 -1.68290376663208 -0.18664465844631195
1.501170039176941 -1.633654236793518 -0.07786410301923752
7.410523414611816 3.458733558654785 -0.3398975729942322
5.712655067443848 0.07677719742059708 -0.2794206738471985
3.898679256439209 -1.668560266494751 -0.19034546613693237
1.5037063360214233 -1.6244237422943115 -0.07962047308683395
7.452240943908691 3.5115253925323486 -0.3366380035877228
5.762317657470703 0.0985696017742157 -0.2808573246002197
3.8955094814300537 -1.6503369808197021 -0.19137388467788696
1.5130099058151245 -1.622504472732544 -0.0817362368106842
7.448395729064941 3.5431325435638428 -0.33560672402381897
5.966506481170654 0.12498049437999725 -0.29291895031929016
3.9014387130737305 -1.6360090970993042 -0.1935890167951584
1.515455961227417 -1.6132322549819946 -0.0842563807964325
7.444523334503174 3.5748093128204346 -0.3316892385482788
5.836153507232666 0.1456901878118515 -0.2865458130836487
3.903266191482544 -1.618382453918457 -0.19557294249534607
7.466963768005371 3.6209325790405273 -0.3260527551174164
5.825803279876709 0.1647646129131317 -0.2830040454864502
3.8949670791625977 -1.5990309715270996 -0.1963491290807724
7.4684319496154785 3.6522839069366455 -0.3251906633377075
5.899933338165283 0.1885051727294922 -0.288702130317688
3.90073823928833 -1.5847185850143433 -0.1978188455104828
2.63484787940979 3.2180089950561523 -0.08712046593427658
7.480788707733154 3.6956114768981934 -0.320538192987442
5.939092636108398 0.21258699893951416 -0.29065611958503723
3.8930675983428955 -1.5634247064590454 -0.1993115097284317
2.3384618759155273 -2.415635347366333 -0.13973799347877502
2.595822334289551 3.1918816566467285 -0.08258779346942902
7.489700794219971 3.734227180480957 -0.3171159625053406
5.808578968048096 0.22923505306243896 -0.2832910716533661
3.9120876789093018 -1.5560178756713867 -0.20149299502372742
2.3777341842651367 -2.43996000289917 -0.14517447352409363
2.584150552749634 3.2014293670654297 -0.07899747043848038
7.489500045776367 3.7684638500213623 -0.31329402327537537
5.867573261260986 0.2531057298183441 -0.2862115800380707
3.9137580394744873 -1.5377264022827148 -0.204923614859581
2.5724494457244873 3.210941791534424 -0.07468900829553604
7.499387741088867 3.804656505584717 -0.30982452630996704
5.94148588180542 0.27811479568481445 -0.2888241708278656
3.9094607830047607 -1.5210915803909302 -0.20590119063854218
7.480466842651367 3.8312437534332275 -0.30377301573753357
5.815783977508545 0.29257962107658386 -0.28276151418685913
3.919603109359741 -1.5085203647613525 -0.20761235058307648
2.3164193630218506 -2.324519157409668 -0.14844466745853424
2.850600004196167 3.609485626220703 -0.0754646509885788
5.799651622772217 0.3151130974292755 -0.28102028369903564
3.9203362464904785 -1.4923287630081177 -0.20956188440322876
2.317772388458252 -2.308889627456665 -0.150276780128479
2.81272554397583 3.588491201400757 -0.07003381848335266
7.5632734298706055 3.9439046382904053 -0.29786717891693115
5.833357810974121 0.33839231729507446 -0.2827117145061493
3.9166219234466553 -1.4737218618392944 -0.21052369475364685
2.326125144958496 -2.300286054611206 -0.15313169360160828
2.7289934158325195 3.5080721378326416 -0.06361333280801773
7.509103775024414 3.950730562210083 -0.29185402393341064
5.812188625335693 0.35854342579841614 -0.280728816986084
3.912567138671875 -1.4558480978012085 -0.21147848665714264
2.316624164581299 -2.2741570472717285 -0.15479575097560883
2.743648052215576 3.5537097454071045 -0.06033945083618164
7.511014938354492 3.9903151988983154 -0.2866038978099823
5.830702781677246 0.38216444849967957 -0.28169187903404236
3.9177725315093994 -1.4414596557617188 -0.21366429328918457
2.3319995403289795 -2.272526979446411 -0.15811364352703094
2.6850295066833496 3.5042612552642822 -0.054708562791347504
4.06611967086792 2.1774940490722656 -0.15301112830638885
3.9182660579681396 -1.4253578186035156 -0.21486413478851318
2.318657398223877 -2.2430150508880615 -0.16003699600696564
2.6207540035247803 3.4464666843414307 -0.04912123456597328
4.040594577789307 2.1829190254211426 -0.14994339644908905
3.918941020965576 -1.408588171005249 -0.21606050431728363
2.2983317375183105 -2.206332206726074 -0.1608354151248932
2.5328369140625 3.3563103675842285 -0.044033851474523544
3.919229507446289 -1.3924925327301025 -0.2187051922082901
2.2267730236053467 -2.1220099925994873 -0.15797370672225952
2.524722099304199 3.3687329292297363 -0.03894297406077385
5.482446670532227 3.015246868133545 -0.1966313272714615
6.97451114654541 0.5611557960510254 -0.3336443603038788
3.9290175437927246 -1.3797729015350342 -0.2189677506685257
2.165515184402466 -2.048542022705078 -0.15570254623889923
2.506413459777832 3.3699710369110107 -0.0344524085521698
7.047117710113525 0.5930016040802002 -0.3359822928905487
3.924743175506592 -1.3613660335540771 -0.22061775624752045
2.103774070739746 -1.97557532787323 -0.1527620106935501
2.5089075565338135 3.3992714881896973 -0.030970588326454163
5.6959147453308105 3.1872541904449463 -0.19713814556598663
3.929633378982544 -1.3469469547271729 -0.22206781804561615
2.0962941646575928 -1.9541418552398682 -0.1542058140039444
2.481677532196045 3.3883001804351807 -0.02638920396566391
5.675608158111572 3.203263282775879 -0.19228646159172058
3.9297409057617188 -1.3309085369110107 -0.2232491821050644
2.122007131576538 -1.962937355041504 -0.15807174146175385
2.4822044372558594 3.4127023220062256 -0.02283228561282158
5.676975727081299 3.231527090072632 -0.188168466091156
3.934518575668335 -1.3164715766906738 -0.22469745576381683
2.1438145637512207 -1.9685782194137573 -0.1611957550048828
2.4872496128082275 3.446120262145996 -0.018544062972068787
5.682515621185303 3.262314558029175 -0.18531356751918793
7.052628993988037 0.6989736557006836 -0.3329833149909973
3.934654474258423 -1.299739122390747 -0.22732003033161163
2.1656253337860107 -1.974024772644043 -0.1658819019794464
5.6891093254089355 3.291231632232666 -0.18014341592788696
6.920900821685791 0.7115432620048523 -0.3256678581237793
3.934645175933838 -1.28376042842865 -0.2270461469888687
2.1801843643188477 -1.9727143049240112 -0.16798658668994904
3.8058674335479736 5.35537576675415 -0.014906843192875385
5.690066814422607 3.3196799755096436 -0.1759553998708725
6.898437023162842 0.7347948551177979 -0.3235218822956085
3.944000482559204 -1.2708375453948975 -0.22876645624637604
2.19473934173584 -1.9713022708892822 -0.17061658203601837
3.8543996810913086 5.461935520172119 -0.009334017522633076
5.621910095214844 3.3075945377349854 -0.17194300889968872
3.9439401626586914 -1.2541226148605347 -0.2313801348209381
2.2021353244781494 -1.9627203941345215 -0.17422065138816833
3.863037109375 5.516988754272461 -0.0011754791485145688
5.588382720947266 3.3155009746551514 -0.1656138300895691
3.1461918354034424 0.35901951789855957 -0.14656411111354828
3.943747043609619 -1.2381635904312134 -0.23110102117061615
2.2279131412506104 -1.9710911512374878 -0.17777135968208313
3.837083339691162 5.5228962898254395 0.005868668667972088
5.631465911865234 3.370363235473633 -0.16268816590309143
3.1250133514404297 0.36821064352989197 -0.14563941955566406
3.943413019180298 -1.2221988439559937 -0.23226302862167358
2.2612550258636475 -1.9858620166778564 -0.18248561024665833
3.649380683898926 5.294031143188477 0.012344705872237682
5.623450756072998 3.3936209678649902 -0.15822671353816986
3.1187100410461426 0.37906238436698914 -0.1448599249124527
3.9477880001068115 -1.2077134847640991 -0.23370413482189178
2.2985169887542725 -2.003711700439453 -0.1870354861021042
3.638413190841675 5.319741249084473 0.01799781061708927
5.636689186096191 3.429856300354004 -0.15434284508228302
3.1074130535125732 0.3892519474029541 -0.14385274052619934
3.9523181915283203 -1.1925225257873535 -0.2351451963186264
2.3698740005493164 -2.050678253173828 -0.1949743628501892
3.6179306507110596 5.327622413635254 0.02472776360809803
5.65397310256958 3.468832492828369 -0.15168817341327667
3.0961520671844482 0.39882344007492065 -0.14284904301166534
3.9517600536346436 -1.1765689849853516 -0.23701980710029602
2.3851988315582275 -2.047975778579712 -0.19779013097286224
3.6095383167266846 5.357409477233887 0.03156939148902893
5.6115522384643555 3.471179485321045 -0.14628151059150696
3.094743490219116 0.410178542137146 -0.1412144899368286
3.951256275177002 -1.160670280456543 -0.2367328405380249
2.4153428077697754 -2.0585272312164307 -0.20244337618350983
3.6741764545440674 5.494640350341797 0.03807065635919571
3.0931203365325928 0.42260491847991943 -0.14012475311756134
3.9603991508483887 -1.146855354309082 -0.23845906555652618
2.297053813934326 -1.943223476409912 -0.19403977692127228
3.662281036376953 5.520533561706543 0.04509459808468819
3.0965216159820557 0.4346366226673126 -0.1398032158613205
3.95969557762146 -1.1309382915496826 -0.23960784077644348
3.6832194328308105 5.5965166091918945 0.053790464997291565
3.0899102687835693 0.44581338763237 -0.13903501629829407
3.9541242122650146 -1.1136884689331055 -0.24046093225479126
2.265338897705078 -1.8874092102050781 -0.19481013715267181
3.700916051864624 5.668539524078369 0.061441726982593536
5.337143421173096 3.410621404647827 -0.12161578983068466
3.0983216762542725 0.45752033591270447 -0.13893330097198486
3.963099956512451 -1.0998098850250244 -0.24218878149986267
2.275954008102417 -1.8821640014648438 -0.19771717488765717
3.682060956954956 5.680724143981934 0.06853093206882477
5.237599849700928 3.3715224266052246 -0.11525147408246994
3.1015865802764893 0.4696246087551117 -0.13860738277435303
3.9622490406036377 -1.0839486122131348 -0.242611825466156
2.286585807800293 -1.8768866062164307 -0.20011642575263977
3.6638786792755127 5.698322772979736 0.07567589730024338
5.035418510437012 3.2700390815734863 -0.1068975105881691
3.0998682975769043 0.48099303245544434 -0.13805988430976868
3.990208864212036 -1.0758939981460571 -0.24552837014198303
2.336185932159424 -1.9026323556900024 -0.20645791292190552
3.8499388694763184 6.036217212677002 0.08747372776269913
4.748485088348389 3.106137752532959 -0.09706174582242966
3.0980224609375 0.4928959012031555 -0.13751237094402313
4.119650363922119 -1.0938446521759033 -0.2547260820865631
2.335272789001465 -1.8876947164535522 -0.20787067711353302
3.8330752849578857 6.058642387390137 0.09635498374700546
4.58269739151001 3.0217320919036865 -0.09006541967391968
3.0962891578674316 0.5042626857757568 -0.13532231748104095
4.273273468017578 -1.1178842782974243 -0.26474347710609436
2.330390453338623 -1.869667410850525 -0.20892062783241272
3.8134453296661377 6.076796531677246 0.10393507778644562
4.480043888092041 2.9776611328125 -0.08450537174940109
3.0943968296051025 0.5156038999557495 -0.1358698457479477
4.427077293395996 -1.1407992839813232 -0.27561286091804504
2.3175759315490723 -1.8454651832580566 -0.20976215600967407
3.794793128967285 6.094218730926514 0.11152554303407669
4.427624702453613 2.966275215148926 -0.07906924188137054
3.0925557613372803 0.5269538164138794 -0.13422726094722748
4.523343086242676 -1.1471021175384521 -0.2813296914100647
2.351952075958252 -1.8581264019012451 -0.21380354464054108
3.7666146755218506 6.093909740447998 0.1187947541475296
4.396050930023193 2.9685239791870117 -0.07499516755342484
3.0906498432159424 0.5382930636405945 -0.1331321895122528
2.378251314163208 -1.864787220954895 -0.21769221127033234
3.7546379566192627 6.124612331390381 0.12664936482906342
3.088582992553711 0.5501604080200195 -0.13258464634418488
2.36527156829834 -1.8406507968902588 -0.21798846125602722
3.516507863998413 5.783639430999756 0.12878531217575073
3.0816986560821533 0.5605952143669128 -0.13073348999023438
2.3603594303131104 -1.822319746017456 -0.21898220479488373
3.4771687984466553 5.766443729400635 0.13282053172588348
3.0845348834991455 0.5727985501289368 -0.1309419870376587
7.996446132659912 -1.902072787284851 -0.5041692852973938
2.3470802307128906 -1.7983760833740234 -0.2197316586971283
3.499527931213379 5.851919651031494 0.14401735365390778
3.080608367919922 2.146665096282959 -0.04128754884004593
3.087390184402466 0.5850428938865662 -0.1295052021741867
8.066622734069824 -1.8875538110733032 -0.5067028999328613
2.349564790725708 -1.7866504192352295 -0.22142186760902405
3.5540263652801514 5.988042831420898 0.15315599739551544
3.0481934547424316 2.140717029571533 -0.03835729509592056
3.090174436569214 0.5973114371299744 -0.1286124587059021
8.102819442749023 -1.863236904144287 -0.5114365816116333
2.396085262298584 -1.8075475692749023 -0.22725751996040344
3.060763120651245 2.166339159011841 -0.03468792140483856
3.0879862308502197 0.608637809753418 -0.1280631273984909
8.10950756072998 -1.8335063457489014 -0.512887716293335
2.3746299743652344 -1.7777432203292847 -0.22668595612049103
3.587961196899414 6.147446632385254 0.17271479964256287
3.040614604949951 2.168849229812622 -0.03128989413380623
3.090589761734009 0.6214883923530579 -0.12661580741405487
2.3410167694091797 -1.7392264604568481 -0.22440315783023834
3.3359460830688477 5.7617597579956055 0.17085248231887817
3.0570249557495117 2.1975045204162598 -0.02825574204325676
3.083439588546753 0.6318176984786987 -0.12531645596027374
2.3676156997680664 -1.7449190616607666 -0.22837451100349426
3.3246686458587646 5.791128158569336 0.17835843563079834
3.0327725410461426 2.196974992752075 -0.024837596341967583
3.0909061431884766 0.6451609134674072 -0.12516319751739502
8.739151954650879 -1.8735119104385376 -0.5560495257377625
2.3778891563415527 -1.7390774488449097 -0.23081830143928528
3.298365592956543 5.794394016265869 0.18623733520507812
3.0886054039001465 0.6565033197402954 -0.12295880168676376
8.775355339050293 -1.8476577997207642 -0.556347131729126
2.372347116470337 -1.7210818529129028 -0.2311812788248062
3.274135112762451 5.79645299911499 0.19176770746707916
3.0960283279418945 0.6699506640434265 -0.12113648653030396
8.015000343322754 -1.6554505825042725 -0.5091687440872192
2.3744957447052 -1.7093923091888428 -0.23232008516788483
3.245408058166504 5.795093059539795 0.20060995221138
3.0935726165771484 0.6812981963157654 -0.12058362364768982
8.05525016784668 -1.6330034732818604 -0.5113419890403748
2.360334634780884 -1.6860977411270142 -0.23236633837223053
3.2070608139038086 5.776177406311035 0.2064720094203949
3.0911362171173096 0.6926503777503967 -0.1183721199631691
8.085564613342285 -1.6083189249038696 -0.5143332481384277
2.2934629917144775 -1.6250643730163574 -0.22714215517044067
3.1795051097869873 5.773946285247803 0.21520712971687317
3.0933852195739746 0.7056393027305603 -0.11689754575490952
8.09194564819336 -1.5773123502731323 -0.5100166201591492
2.3890628814697266 -1.6796845197677612 -0.23651200532913208
3.1914658546447754 5.795666694641113 0.22179681062698364
3.088792562484741 0.7040244936943054 -0.11229018121957779
8.086825370788574 -1.5807098150253296 -0.49964138865470886
2.384894371032715 -1.6773757934570312 -0.2330552190542221
3.2224855422973633 5.801571846008301 0.2166755646467209
3.091409206390381 0.692711591720581 -0.11063139885663986
8.076337814331055 -1.6094143390655518 -0.49502691626548767
2.3095428943634033 -1.637669324874878 -0.222823828458786
3.2511465549468994 5.802964210510254 0.21136045455932617
3.0938892364501953 0.6813679337501526 -0.11173725128173828
8.041373252868652 -1.633112907409668 -0.48749840259552
2.3523194789886475 -1.6809924840927124 -0.22551296651363373
3.282317876815796 5.8085713386535645 0.20617347955703735
3.0915987491607666 0.6684272885322571 -0.11156101524829865
7.996191024780273 -1.6559315919876099 -0.4808505177497864
2.382741689682007 -1.7159600257873535 -0.22593754529953003
3.301666736602783 5.797839164733887 0.19918666779994965
3.0905492305755615 2.2536673545837402 -0.010681401006877422
3.0891590118408203 0.6560574769973755 -0.11083358526229858
2.3849668502807617 -1.7302372455596924 -0.22413352131843567
3.3030669689178467 5.751175880432129 0.19220541417598724
3.070430278778076 2.22180438041687 -0.011906617321074009
3.081721544265747 0.6426826119422913 -0.1115817278623581
8.911419868469238 -1.9136967658996582 -0.5303320288658142
2.374166488647461 -1.7369909286499023 -0.2206738293170929
3.3682990074157715 5.817639350891113 0.18777301907539368
3.037931442260742 2.181367874145508 -0.014360534027218819
3.084075450897217 0.6313871145248413 -0.11103228479623795
2.3960013389587402 -1.7664844989776611 -0.22121383249759674
