# .PCD v0.7 - Point Cloud Data file format
VERSION 0.7
FIELDS x y z
SIZE 4 4 4
TYPE F F F
COUNT 1 1 1
WIDTH 828
HEIGHT 1
VIEWPOINT 0 0 0 1 0 0 0
POINTS 828
DATA ascii
1.446263313293457 -1.5905375480651855 -0.21002864837646484
5.9881181716918945 0.08675134181976318 -0.8587242960929871
3.8876938819885254 -1.6767191886901855 -0.5543911457061768
1.4552949666976929 -1.5887322425842285 -0.21277116239070892
5.96811580657959 0.10834170132875443 -0.8548437356948853
3.8892765045166016 -1.6597193479537964 -0.5559561848640442
1.454182744026184 -1.5758827924728394 -0.21440832316875458
6.954237461090088 3.3498387336730957 -0.9723981022834778
3.8996307849884033 -1.6472684144973755 -0.5588245391845703
1.4530212879180908 -1.5630899667739868 -0.215648353099823
7.026391506195068 3.4178965091705322 -0.981544554233551
3.8964192867279053 -1.6283096075057983 -0.5604641437530518
1.458559274673462 -1.5575603246688843 -0.21825551986694336
7.063574314117432 3.4680559635162354 -0.9815331101417542
3.1663818359375 0.09342290461063385 -0.45309555530548096
3.902270793914795 -1.6139802932739258 -0.5612011551856995
1.4675397872924805 -1.5556825399398804 -0.2206306755542755
2.645796775817871 3.2498538494110107 -0.34674569964408875
7.029197692871094 3.4832096099853516 -0.9729622006416321
3.2352564334869385 0.10788978636264801 -0.46300703287124634
3.9033985137939453 -1.5969223976135254 -0.5642231106758118
1.4833492040634155 -1.560939908027649 -0.2244250625371933
2.7123970985412598 3.356712579727173 -0.35253411531448364
7.060756206512451 3.5326809883117676 -0.973604679107666
3.225027322769165 0.11938366293907166 -0.4610278606414795
3.9043569564819336 -1.5806342363357544 -0.5657656788825989
1.481992483139038 -1.548109531402588 -0.22600694000720978
2.773228406906128 3.455371141433716 -0.3572574853897095
7.136968612670898 3.603579044342041 -0.980262041091919
3.2293293476104736 0.13196146488189697 -0.46286314725875854
3.905521869659424 -1.5636788606643677 -0.5673028826713562
1.4912127256393433 -1.545814871788025 -0.22878065705299377
7.146915912628174 3.6399645805358887 -0.9791051745414734
3.2189900875091553 0.1439216434955597 -0.46088314056396484
3.9110424518585205 -1.5492808818817139 -0.5687713623046875
1.5033313035964966 -1.547529935836792 -0.2324758917093277
2.6061487197875977 3.2964065074920654 -0.32850486040115356
7.165036678314209 3.682328462600708 -0.9777225255966187
3.223545789718628 0.15596584975719452 -0.46046459674835205
3.9074583053588867 -1.5305293798446655 -0.569628894329071
1.4987165927886963 -1.5309734344482422 -0.2323646992444992
2.613851547241211 3.328779697418213 -0.3271496593952179
3.2327287197113037 0.16885437071323395 -0.4624420404434204
3.912576675415039 -1.5160174369812012 -0.5732908248901367
1.5320360660552979 -1.5535781383514404 -0.23934361338615417
5.032192230224609 2.6330034732818604 -0.680244505405426
3.2223331928253174 0.18072056770324707 -0.4599013030529022
3.909022808074951 -1.4974030256271362 -0.57266765832901
5.044205188751221 2.6640098094940186 -0.6812264323234558
3.2314512729644775 0.19311556220054626 -0.46187707781791687
3.9187421798706055 -1.4846787452697754 -0.5762711763381958
2.407634735107422 -2.405954360961914 -0.3811870217323303
5.0350341796875 2.682813882827759 -0.6752523183822632
3.1814451217651367 0.20238953828811646 -0.45370200276374817
3.924130916595459 -1.4695148468017578 -0.5784652233123779
2.412672281265259 -2.3933794498443604 -0.38359636068344116
5.051825046539307 2.7155797481536865 -0.6747745275497437
3.924656629562378 -1.4533320665359497 -0.5792423486709595
2.424680471420288 -2.387723207473755 -0.3877210021018982
5.979475021362305 0.425467312335968 -0.8531569838523865
3.906668186187744 -1.4296375513076782 -0.5779931545257568
2.4472827911376953 -2.392376184463501 -0.39416658878326416
2.54790997505188 3.394731044769287 -0.2982954680919647
3.9115970134735107 -1.4152063131332397 -0.5801712274551392
2.4736084938049316 -2.400444507598877 -0.40003514289855957
2.513594388961792 3.3710174560546875 -0.29035407304763794
4.200554847717285 2.318830966949463 -0.5543090105056763
3.921473979949951 -1.4017748832702637 -0.5823156833648682
2.496812582015991 -2.4044156074523926 -0.4059709310531616
2.498434543609619 3.3764405250549316 -0.28561127185821533
6.8083343505859375 0.5621396899223328 -0.9698338508605957
3.9214367866516113 -1.3855732679367065 -0.5852528810501099
2.5268354415893555 -2.4155402183532715 -0.4131215214729309
2.501011371612549 3.4059598445892334 -0.28214502334594727
5.214473247528076 2.929816961288452 -0.6825273036956787
6.791833400726318 0.5870422720909119 -0.9641562700271606
3.917379140853882 -1.3672429323196411 -0.5838594436645508
2.524552583694458 -2.3957107067108154 -0.4150058925151825
2.5004937648773193 3.4315483570098877 -0.27754926681518555
5.169534206390381 2.9295480251312256 -0.6738441586494446
6.76974630355835 0.610139012336731 -0.9625418186187744
3.922213315963745 -1.3520578145980835 -0.5867559909820557
2.5330514907836914 -2.3861923217773438 -0.418042927980423
2.4629435539245605 3.4036734104156494 -0.2702144980430603
5.072389602661133 2.9002840518951416 -0.6584967374801636
3.912792682647705 -1.3327853679656982 -0.5868197083473206
2.530529499053955 -2.3663711547851562 -0.4204869568347931
4.9674224853515625 2.864475727081299 -0.6421749591827393
3.931762933731079 -1.3224204778671265 -0.5903761982917786
2.5389156341552734 -2.3568296432495117 -0.42351022362709045
4.970163822174072 2.8903822898864746 -0.6398305892944336
6.063450336456299 0.6159027814865112 -0.859801709651947
3.9268951416015625 -1.3047819137573242 -0.5911338329315186
2.5399105548858643 -2.3404812812805176 -0.42591381072998047
3.916403293609619 5.53748083114624 -0.41245734691619873
4.956647872924805 2.9045605659484863 -0.6352670192718506
5.913547515869141 0.6215388774871826 -0.8388479351997375
3.9316799640655518 -1.2896298170089722 -0.5925782322883606
2.5407638549804688 -2.3241055011749268 -0.42889711260795593
3.887766122817993 5.5399489402771 -0.4032784402370453
4.971700668334961 2.93908429145813 -0.6325165629386902
5.90666389465332 0.6447984576225281 -0.8340016007423401
3.9222795963287354 -1.2698864936828613 -0.5918909311294556
2.542043924331665 -2.3074111938476562 -0.43065720796585083
3.870582103729248 5.552478790283203 -0.3961907923221588
5.57182502746582 3.321474552154541 -0.7058278918266296
5.815811634063721 0.6554313898086548 -0.821491539478302
3.94075345993042 -1.259928822517395 -0.5961889624595642
2.546518564224243 -2.2945055961608887 -0.4330263137817383
3.8372201919555664 5.551995754241943 -0.3855990767478943
5.619683265686035 3.377981185913086 -0.7088226675987244
5.7638349533081055 0.6740356087684631 -0.8145415186882019
3.9312057495117188 -1.2402586936950684 -0.5954884886741638
2.550874710083008 -2.2815465927124023 -0.43598371744155884
3.8077526092529297 5.548608779907227 -0.3762369155883789
5.620545387268066 3.4066054821014404 -0.704699695110321
5.771580696105957 0.6963939666748047 -0.8128877878189087
3.9449751377105713 -1.2287229299545288 -0.5983604788780212
2.5478086471557617 -2.2620503902435303 -0.4370615780353546
3.7904560565948486 5.567030429840088 -0.3682880401611328
5.641777515411377 3.4491641521453857 -0.7043478488922119
5.813230991363525 0.7240762114524841 -0.8180970549583435
3.940004587173462 -1.210598349571228 -0.5983661413192749
2.556130886077881 -2.2519469261169434 -0.440629243850708
3.748884916305542 5.547501564025879 -0.357924222946167
5.6466546058654785 3.4806411266326904 -0.6995203495025635
5.879312992095947 0.7552434206008911 -0.826744019985199
3.9490585327148438 -1.1968048810958862 -0.6012451648712158
2.5529379844665527 -2.2325682640075684 -0.44107282161712646
3.7195465564727783 5.543625831604004 -0.3498658537864685
5.64694356918335 3.5094454288482666 -0.6964520215988159
5.862190246582031 0.7728129029273987 -0.8236400485038757
3.948476791381836 -1.180845022201538 -0.6019629240036011
2.5569512844085693 -2.2195918560028076 -0.4445650577545166
3.6994378566741943 5.557573318481445 -0.34170955419540405
5.655524730682373 3.543578863143921 -0.6943974494934082
5.8593220710754395 0.7953356504440308 -0.8226079940795898
3.9480347633361816 -1.16421639919281 -0.602677047252655
2.5497536659240723 -2.1970083713531494 -0.444898784160614
3.6701085567474365 5.559675216674805 -0.33047887682914734
5.866459369659424 0.8203011155128479 -0.819850742816925
3.9522736072540283 -1.1489897966384888 -0.6041138172149658
3.6463332176208496 5.563700199127197 -0.32417845726013184
5.868027210235596 0.8435048460960388 -0.8215709328651428
3.9608068466186523 -1.1357431411743164 -0.6077166795730591
2.300974130630493 -1.9527493715286255 -0.40535447001457214
3.620685338973999 5.568980693817139 -0.31557655334472656
4.779892444610596 3.069814920425415 -0.5770314931869507
5.874686241149902 0.8674981594085693 -0.8219072222709656
3.9508588314056396 -1.1164909601211548 -0.6055280566215515
3.589627504348755 5.565743923187256 -0.3065362870693207
4.702130317687988 3.044273614883423 -0.565036416053772
5.871608734130859 0.8890456557273865 -0.8208706974983215
3.959280252456665 -1.103216528892517 -0.6091271042823792
2.2617993354797363 -1.8904870748519897 -0.40118151903152466
3.5677123069763184 5.57438850402832 -0.29706448316574097
4.6497697830200195 3.0346169471740723 -0.5542041659355164
5.878824234008789 0.9111407399177551 -0.8180869817733765
3.9587178230285645 -1.086696743965149 -0.6083941459655762
2.2836928367614746 -1.8946120738983154 -0.40646812319755554
3.5386574268341064 5.569583415985107 -0.2892577350139618
4.6192145347595215 3.0365655422210693 -0.5478621125221252
5.880478382110596 0.9334806799888611 -0.8177289962768555
3.9149131774902344 -1.0585240125656128 -0.6024797558784485
2.29034686088562 -1.886003017425537 -0.4090574085712433
3.515768051147461 5.578625679016113 -0.27983200550079346
4.587867736816406 3.0400991439819336 -0.5386728048324585
5.8769917488098145 0.9560759663581848 -0.8166897892951965
4.066703796386719 -1.0835864543914795 -0.6267254948616028
2.2397661209106445 -1.8299657106399536 -0.40133804082870483
3.496452569961548 5.591149806976318 -0.27177563309669495
4.556314468383789 3.0432817935943604 -0.532412588596344
5.868842601776123 0.9768432378768921 -0.8139335513114929
4.204555988311768 -1.1030447483062744 -0.648863673210144
2.4306845664978027 -1.97114098072052 -0.4381484389305115
3.4339981079101562 5.536314010620117 -0.25938519835472107
4.508356094360352 3.0352039337158203 -0.523317813873291
5.923791408538818 1.0093802213668823 -0.8210174441337585
4.352177143096924 -1.1239290237426758 -0.6725783348083496
2.2679996490478516 -1.825474500656128 -0.40916889905929565
3.073509693145752 4.9959187507629395 -0.22636018693447113
4.464025497436523 3.0303328037261963 -0.5157173871994019
5.929915428161621 1.0338693857192993 -0.8202699422836304
4.466375350952148 -1.1359745264053345 -0.6904005408287048
2.3442306518554688 -1.8720446825027466 -0.4253599941730499
3.0448973178863525 4.984429836273193 -0.2192796915769577
5.8725738525390625 1.0460647344589233 -0.8118026256561279
2.3003549575805664 -1.8232389688491821 -0.4187967777252197
2.985337257385254 4.927436351776123 -0.20823442935943604
4.413810729980469 3.0437474250793457 -0.5020946264266968
5.839822292327881 1.063381552696228 -0.8036132454872131
6.361277103424072 -1.566011667251587 -0.9860983490943909
2.2834513187408447 -1.7962539196014404 -0.416587769985199
2.9570913314819336 4.921426296234131 -0.2004975974559784
5.845766067504883 1.086614966392517 -0.8039171695709229
6.366639137268066 -1.5426048040390015 -0.9883849620819092
2.9195644855499268 4.8976149559021 -0.19114060699939728
6.367369651794434 -1.5169215202331543 -0.9899239540100098
2.2923777103424072 -1.7755885124206543 -0.42093944549560547
2.899167537689209 4.904178142547607 -0.1840129941701889
3.099794387817383 2.1882851123809814 -0.3446478843688965
6.353725433349609 -1.4879131317138672 -0.9880722165107727
2.3969616889953613 -1.8419135808944702 -0.4415358006954193
2.8669891357421875 4.888619422912598 -0.1751316338777542
3.0270256996154785 2.1535816192626953 -0.3348177373409271
6.93276309967041 1.3702093362808228 -0.9466882944107056
6.378662586212158 -1.4679404497146606 -0.9910663962364197
2.305050849914551 -1.757886290550232 -0.42599955201148987
2.840797185897827 4.880978584289551 -0.1685999631881714
3.0072062015533447 2.156125068664551 -0.3302423059940338
7.0494771003723145 1.4201436042785645 -0.9607751965522766
6.369198322296143 -1.4412024021148682 -0.9911003112792969
2.3900609016418457 -1.8089008331298828 -0.4431547224521637
2.810511827468872 4.869912147521973 -0.16000328958034515
2.995570659637451 2.164450168609619 -0.32528290152549744
7.146084308624268 1.4681801795959473 -0.973406970500946
6.360038757324219 -1.4134808778762817 -0.9899865984916687
2.3531746864318848 -1.7668136358261108 -0.4376787543296814
2.791107654571533 4.875521183013916 -0.15299759805202484
2.9676673412323 2.160888195037842 -0.32052817940711975
7.092804431915283 1.4843480587005615 -0.9617354869842529
6.340935230255127 -1.38370680809021 -0.9884966015815735
2.3078393936157227 -1.7195838689804077 -0.4301253855228424
2.76346492767334 4.868534088134766 -0.14365974068641663
2.9439754486083984 2.1601924896240234 -0.3143276572227478
7.126491069793701 1.519983172416687 -0.961911141872406
6.34113073348999 -1.359420657157898 -0.9877437353134155
2.3658742904663086 -1.7487386465072632 -0.4417869746685028
2.7367286682128906 4.860877513885498 -0.13633155822753906
2.932251453399658 2.168168306350708 -0.31071650981903076
7.164799690246582 1.5556305646896362 -0.9652411341667175
6.360645771026611 -1.338079571723938 -0.9911367297172546
2.3081116676330566 -1.6929969787597656 -0.43290480971336365
2.7255380153656006 4.878775596618652 -0.1307237148284912
2.836648464202881 2.11360239982605 -0.297673761844635
7.1687822341918945 1.5853431224822998 -0.9639836549758911
6.341194152832031 -1.3085819482803345 -0.9896283149719238
2.406284809112549 -1.7508363723754883 -0.45217904448509216
2.6916284561157227 4.857825756072998 -0.1211816817522049
2.9095864295959473 2.1829915046691895 -0.302249938249588
7.1972737312316895 1.6193360090255737 -0.9646774530410767
6.365719318389893 -1.288179636001587 -0.9915164709091187
2.3162524700164795 -1.6723783016204834 -0.4361465275287628
2.685908555984497 4.8896918296813965 -0.11491133272647858
7.157825469970703 1.639361023902893 -0.9550129771232605
6.374905586242676 -1.2657344341278076 -0.9945398569107056
7.137928009033203 1.6623612642288208 -0.94796222448349
6.409340858459473 -1.247010588645935 -0.9956590533256531
7.148870468139648 1.6649096012115479 -0.9389970302581787
6.444061279296875 -1.2561006546020508 -0.9929146766662598
2.7036895751953125 4.920027256011963 -0.10779362916946411
2.854936361312866 2.1576051712036133 -0.28666502237319946
7.184218883514404 1.6440861225128174 -0.9428038001060486
6.4544172286987305 -1.2838634252548218 -0.9905636310577393
2.362922430038452 -1.6929341554641724 -0.44064855575561523
2.714367628097534 4.896849155426025 -0.11434601992368698
2.906562328338623 2.1799299716949463 -0.29295918345451355
7.209834098815918 1.6208399534225464 -0.9453415870666504
6.527713298797607 -1.3233330249786377 -0.9989838600158691
2.357074499130249 -1.701852560043335 -0.4376043677330017
2.7118747234344482 4.852328300476074 -0.11935041099786758
2.8343725204467773 2.1095995903015137 -0.28800538182258606
7.172141075134277 1.584773063659668 -0.939631462097168
6.542466163635254 -1.3524980545043945 -0.9984525442123413
2.2829830646514893 -1.661730170249939 -0.4215030372142792
2.7320330142974854 4.846599578857422 -0.12528398633003235
2.966606616973877 2.1903696060180664 -0.30252885818481445
7.15846586227417 1.5529470443725586 -0.9396505355834961
6.523387432098389 -1.3746933937072754 -0.9915814399719238
2.3450303077697754 -1.7200767993927002 -0.43100687861442566
2.760368585586548 4.859127044677734 -0.1316990703344345
2.950284004211426 2.1616547107696533 -0.3032677471637726
7.38254451751709 1.5732488632202148 -0.966961681842804
6.591009616851807 -1.4141932725906372 -1.001438856124878
2.3271381855010986 -1.7201067209243774 -0.42577770352363586
2.7979683876037598 4.883551597595215 -0.13853546977043152
2.9774959087371826 2.166455030441284 -0.30661898851394653
7.422181129455566 1.5519263744354248 -0.9740558862686157
6.644197940826416 -1.4523141384124756 -1.0055078268051147
2.3407089710235596 -1.7440752983093262 -0.42636027932167053
2.817411422729492 4.877933502197266 -0.1455407738685608
2.9899470806121826 2.1572113037109375 -0.31089499592781067
7.403793811798096 1.5184340476989746 -0.9708706140518188
6.639085292816162 -1.4779293537139893 -1.0019466876983643
2.3030002117156982 -1.7291414737701416 -0.4175635278224945
2.8502869606018066 4.893353462219238 -0.15224593877792358
3.013904571533203 2.1577436923980713 -0.3145163953304291
7.146775245666504 1.4384467601776123 -0.9364696741104126
6.600191593170166 -1.4946818351745605 -0.9944835901260376
2.348302125930786 -1.7766512632369995 -0.42380714416503906
2.8832805156707764 4.908542633056641 -0.16100086271762848
3.025299072265625 2.149968147277832 -0.31753024458885193
7.025586128234863 1.3860070705413818 -0.921156108379364
6.647939682006836 -1.5323537588119507 -0.9989082217216492
2.3456919193267822 -1.7888801097869873 -0.4219452738761902
2.9181344509124756 4.928404331207275 -0.16798830032348633
6.685697078704834 -1.5681159496307373 -1.0030306577682495
2.3002724647521973 -1.7676140069961548 -0.4113216996192932
2.9343700408935547 4.918546676635742 -0.1739860624074936
5.866010665893555 1.1115756034851074 -0.7711815237998962
6.685396671295166 -1.593919277191162 -0.9989553093910217
2.3685004711151123 -1.833889126777649 -0.4215214252471924
2.9754512310028076 4.9461140632629395 -0.182404562830925
5.909049034118652 1.0973111391067505 -0.776305615901947
6.684206008911133 -1.6207847595214844 -0.99847412109375
2.268406391143799 -1.7697243690490723 -0.40178731083869934
3.0038259029388428 4.9521002769470215 -0.18910165131092072
4.401033878326416 3.0315375328063965 -0.473187118768692
5.9080729484558105 1.0736788511276245 -0.7777612209320068
2.3786609172821045 -1.8704774379730225 -0.4198930561542511
3.052248954772949 4.9925456047058105 -0.19820885360240936
5.989943027496338 1.0658926963806152 -0.7890990972518921
2.2789008617401123 -1.8055871725082397 -0.40086260437965393
3.2460737228393555 5.266115188598633 -0.21710757911205292
4.562652587890625 3.0937957763671875 -0.49684080481529236
5.906060695648193 1.0275862216949463 -0.7775231003761292
4.359755992889404 -1.1096673011779785 -0.6466781497001648
2.2842092514038086 -1.823460340499878 -0.3998508155345917
3.4762096405029297 5.5934648513793945 -0.2391832023859024
4.578341484069824 3.0788381099700928 -0.5011415481567383
5.880499362945557 0.9998912811279297 -0.7747054696083069
4.231392860412598 -1.0935248136520386 -0.6258930563926697
2.3624961376190186 -1.9008538722991943 -0.41105619072914124
3.5052103996276855 5.598631381988525 -0.2468263953924179
4.593518257141113 3.064654588699341 -0.5044852495193481
5.903421401977539 0.9815399050712585 -0.7793704271316528
4.074173927307129 -1.0695995092391968 -0.6017403602600098
2.2518060207366943 -1.8254296779632568 -0.3908977508544922
3.522923707962036 5.581337928771973 -0.2523995339870453
4.604425430297852 3.047602653503418 -0.5083401799201965
5.868127822875977 0.9525314569473267 -0.7731671929359436
3.92216420173645 -1.0458065271377563 -0.5769866108894348
3.5555992126464844 5.589780330657959 -0.26260507106781006
4.63599967956543 3.0441243648529053 -0.5154721140861511
5.881239414215088 0.9325491189956665 -0.7754961252212524
3.971064329147339 -1.0744500160217285 -0.583290696144104
2.273111343383789 -1.8711445331573486 -0.39074617624282837
3.5893707275390625 5.597464084625244 -0.2717193365097046
4.67185115814209 3.0432181358337402 -0.5221410989761353
5.86491060256958 0.9068880677223206 -0.7749849557876587
3.962332010269165 -1.0884325504302979 -0.581154465675354
2.277998924255371 -1.8892171382904053 -0.38962066173553467
3.605046272277832 5.581092357635498 -0.2784730792045593
4.6904988288879395 3.032097578048706 -0.526972770690918
5.873117923736572 0.8850803971290588 -0.7766690850257874
3.9635701179504395 -1.1036664247512817 -0.5797004699707031
2.3214550018310547 -1.9382857084274292 -0.3954658806324005
3.6307952404022217 5.576008319854736 -0.28469860553741455
5.861741065979004 0.8614054918289185 -0.7736901044845581
3.959693193435669 -1.118241310119629 -0.5782642364501953
3.655496120452881 5.571315765380859 -0.29443034529685974
5.854654312133789 0.8374112248420715 -0.7765243053436279
3.9552648067474365 -1.1349010467529297 -0.5761097073554993
3.6839563846588135 5.570074558258057 -0.30325156450271606
5.862728595733643 0.8166499137878418 -0.7761421203613281
3.9513676166534424 -1.1494742631912231 -0.5739551186561584
3.7124805450439453 5.568734645843506 -0.31094083189964294
5.6021952629089355 3.5060808658599854 -0.6421833634376526
5.870599269866943 0.7947795391082764 -0.7778261303901672
3.9522736072540283 -1.1647167205810547 -0.5732076168060303
2.5718743801116943 -2.212942123413086 -0.42982399463653564
3.7511754035949707 5.584442615509033 -0.32078438997268677
5.636375904083252 3.4974257946014404 -0.6492322683334351
5.8831682205200195 0.774533748626709 -0.780163586139679
3.9527089595794678 -1.181359052658081 -0.5724564790725708
2.567889928817749 -2.225945472717285 -0.42630085349082947
3.7685961723327637 5.566192626953125 -0.32875895500183105
5.624454498291016 3.458834648132324 -0.6520723104476929
5.8515424728393555 0.7475239038467407 -0.7766307592391968
3.948221206665039 -1.1973035335540771 -0.5702963471412659
2.555476665496826 -2.2332146167755127 -0.42271703481674194
3.7952773571014404 5.5657548904418945 -0.3365464210510254
5.601529121398926 3.4191880226135254 -0.652722954750061
5.824584007263184 0.7213612198829651 -0.774763822555542
3.9394729137420654 -1.2096824645996094 -0.5681732296943665
2.5591723918914795 -2.2522475719451904 -0.4210013151168823
3.826763153076172 5.567975044250488 -0.34461963176727295
5.583840847015381 3.380362033843994 -0.6538161039352417
5.817479610443115 0.6988418698310852 -0.7724324464797974
3.939692497253418 -1.227077603340149 -0.565975546836853
2.5615761280059814 -2.272675037384033 -0.4192538857460022
3.849745750427246 5.557666301727295 -0.353134423494339
5.5579962730407715 3.3356215953826904 -0.6538565158843994
5.824909687042236 0.6770559549331665 -0.774109423160553
3.9351401329040527 -1.2422552108764648 -0.5645351409912109
2.557310104370117 -2.285696029663086 -0.4156714081764221
3.87559175491333 5.551400184631348 -0.36074620485305786
5.881401538848877 0.6617838144302368 -0.782340407371521
3.9403724670410156 -1.2598069906234741 -0.5630025863647461
2.552873134613037 -2.298617362976074 -0.4132753312587738
3.8975250720977783 5.541504383087158 -0.37047210335731506
4.990283489227295 2.945370674133301 -0.5937099456787109
6.036524295806885 0.6557763814926147 -0.8037121891975403
3.935786485671997 -1.275018334388733 -0.5608364343643188
2.55210542678833 -2.3149194717407227 -0.4108617901802063
3.905996799468994 5.510517120361328 -0.3776324689388275
4.975947380065918 2.9100396633148193 -0.594676673412323
6.058577060699463 0.6346439719200134 -0.8073998093605042
3.935980796813965 -1.2910404205322266 -0.5600622296333313
2.539848804473877 -2.3216404914855957 -0.40666648745536804
4.968507766723633 2.882460832595825 -0.5966346263885498
6.129761695861816 0.6193959712982178 -0.8176724910736084
3.940584421157837 -1.3093304634094238 -0.5599526762962341
2.5498480796813965 -2.3479928970336914 -0.40657591819763184
2.463141441345215 3.424039602279663 -0.2439441829919815
4.9874796867370605 2.869086742401123 -0.5996761918067932
6.151970386505127 0.5977862477302551 -0.819225013256073
3.926503896713257 -1.3214144706726074 -0.5557240843772888
2.5452284812927246 -2.361036539077759 -0.40291720628738403
2.463779926300049 3.398580551147461 -0.247918039560318
5.118353843688965 2.919457197189331 -0.6203595399856567
3.9175004959106445 -1.3328629732131958 -0.5543371438980103
2.541271448135376 -2.3730931282043457 -0.40045952796936035
2.4695606231689453 3.3816511631011963 -0.2524445056915283
5.1978888511657715 2.939626693725586 -0.6329047679901123
6.9855170249938965 0.6258987188339233 -0.9308178424835205
3.9263041019439697 -1.3542349338531494 -0.5534294247627258
2.542829751968384 -2.3937289714813232 -0.39912834763526917
2.496570587158203 3.3924601078033447 -0.25835996866226196
5.169910907745361 2.897660255432129 -0.6302307844161987
6.977830410003662 0.5982111096382141 -0.9307245016098022
3.9215872287750244 -1.3687115907669067 -0.5512546896934509
2.537996292114258 -2.406785249710083 -0.39542311429977417
2.4957594871520996 3.367905616760254 -0.26152536273002625
7.093427658081055 0.5819395184516907 -0.9471165537834167
3.931170701980591 -1.3874694108963013 -0.5503178834915161
2.5015456676483154 -2.38802433013916 -0.3873082995414734
3.921082019805908 -1.4016348123550415 -0.5482099652290344
2.4882314205169678 -2.395315170288086 -0.38313519954681396
5.970401287078857 0.44472524523735046 -0.7988286018371582
3.9250845909118652 -1.420086145401001 -0.5487867593765259
2.4618823528289795 -2.387396812438965 -0.37678778171539307
3.9295237064361572 -1.4380015134811401 -0.5471691489219666
2.4462387561798096 -2.389686346054077 -0.37271150946617126
5.005018711090088 2.687042474746704 -0.6251486539840698
3.9335408210754395 -1.4566220045089722 -0.5462695956230164
2.4165265560150146 -2.378032684326172 -0.36531928181648254
5.041803359985352 2.680774450302124 -0.6314202547073364
3.180434465408325 0.20065326988697052 -0.4252042770385742
3.9284424781799316 -1.4711294174194336 -0.544073224067688
2.400958299636841 -2.380096912384033 -0.3612978160381317
5.046441078186035 2.660686731338501 -0.6338578462600708
3.1712868213653564 0.18785370886325836 -0.4238817095756531
3.923637866973877 -1.4849674701690674 -0.5411445498466492
2.3828041553497314 -2.3778188228607178 -0.35559147596359253
5.183481216430664 2.7087066173553467 -0.6539531350135803
3.176828622817993 0.17649993300437927 -0.42509835958480835
3.9225401878356934 -1.5025811195373535 -0.5395849347114563
2.6086268424987793 3.316164016723633 -0.3016977906227112
3.182431936264038 0.16455641388893127 -0.4257604777812958
3.921541690826416 -1.5194910764694214 -0.5387539267539978
1.5126439332962036 -1.5328426361083984 -0.22254584729671478
2.6236302852630615 3.3101978302001953 -0.3072150647640228
3.182790756225586 0.15288040041923523 -0.4274289608001709
3.930063009262085 -1.5393835306167603 -0.5384500026702881
1.503643274307251 -1.5349339246749878 -0.22053183615207672
2.6168394088745117 3.2768850326538086 -0.31016239523887634
7.466365337371826 3.7960994243621826 -0.9528411626815796
3.1834287643432617 0.1406615525484085 -0.42687278985977173
3.911090850830078 -1.5477207899093628 -0.5343495011329651
1.5019052028656006 -1.5439038276672363 -0.21878688037395477
2.578617811203003 3.204862356185913 -0.3085693418979645
7.444796562194824 3.74922776222229 -0.9541395306587219
3.183945417404175 0.12843705713748932 -0.42687278985977173
3.9144017696380615 -1.5672342777252197 -0.5326662659645081
1.4996318817138672 -1.5534567832946777 -0.2162775695323944
2.5984408855438232 3.207662343978882 -0.3140144646167755
7.40900182723999 3.697221517562866 -0.9536657929420471
3.194258451461792 0.11824465543031693 -0.42820054292678833
3.909165620803833 -1.5809930562973022 -0.530458390712738
1.4908870458602905 -1.5552259683609009 -0.21389923989772797
2.546349048614502 3.1210200786590576 -0.31135094165802
7.435110092163086 3.6762750148773193 -0.9626204967498779
3.194650888442993 0.10486113280057907 -0.428758442401886
3.9074649810791016 -1.598586082458496 -0.5303456783294678
1.484785556793213 -1.5613596439361572 -0.2116430401802063
2.5797195434570312 3.1383678913116455 -0.3183027505874634
7.430089473724365 3.639963150024414 -0.9660912752151489
3.2197649478912354 0.09443551301956177 -0.4320821464061737
3.902287006378174 -1.6123919486999512 -0.526661217212677
1.4694737195968628 -1.5555555820465088 -0.2083093374967575
2.578310251235962 3.113321304321289 -0.3202682435512543
7.416899681091309 3.5982542037963867 -0.9654895663261414
3.9006147384643555 -1.6300629377365112 -0.525066614151001
1.4668183326721191 -1.5652843713760376 -0.20579880475997925
5.9501824378967285 0.12775546312332153 -0.7993935942649841
3.894580125808716 -1.6451350450515747 -0.5228530168533325
1.4679738283157349 -1.578070044517517 -0.20487304031848907
5.955844402313232 0.10603927820920944 -0.7979798913002014
3.907116651535034 -1.6673325300216675 -0.5223422050476074
1.4657256603240967 -1.5872797966003418 -0.20270675420761108
5.935939788818359 0.08495918661355972 -0.7984328866004944
3.9013564586639404 -1.6809967756271362 -0.5216007232666016
1.4605969190597534 -1.5922871828079224 -0.20044414699077606
7.33654260635376 3.4257638454437256 -0.971237301826477
5.921378135681152 0.05994362756609917 -0.7964335083961487
3.8949928283691406 -1.696825385093689 -0.517893373966217
1.4509828090667725 -1.5946093797683716 -0.19772471487522125
7.339858531951904 3.393045425415039 -0.9771032333374023
5.921544551849365 0.04030729830265045 -0.7964335083961487
1.4391239881515503 -1.592151403427124 -0.19493864476680756
7.3383965492248535 3.3597803115844727 -0.9781211614608765
5.936527729034424 0.01554182730615139 -0.7984328866004944
3.4925637245178223 -1.552798867225647 -0.46185973286628723
1.432901382446289 -1.5981166362762451 -0.19194182753562927
2.782099723815918 3.1914288997650146 -0.3704119026660919
7.2816548347473145 3.303105115890503 -0.9746801853179932
6.040467739105225 -0.004217042587697506 -0.8134830594062805
3.4508397579193115 -1.5494211912155151 -0.45508062839508057
1.4172114133834839 -1.5923210382461548 -0.1887456476688385
2.712611436843872 3.0931406021118164 -0.36210742592811584
7.251520156860352 3.260483741760254 -0.972010612487793
6.174497604370117 -0.025863824412226677 -0.8293459415435791
3.391364812850952 -1.5369641780853271 -0.4459644854068756
1.4153528213500977 -1.6008909940719604 -0.18694907426834106
7.269181728363037 3.231888771057129 -0.9767826795578003
3.345428705215454 -1.530950665473938 -0.4374024569988251
1.4024953842163086 -1.5992395877838135 -0.18347890675067902
7.251831531524658 3.195415496826172 -0.980042576789856
3.1364691257476807 -0.03667861968278885 -0.42242395877838135
3.312553644180298 -1.5313163995742798 -0.4332238435745239
1.3907650709152222 -1.5965124368667603 -0.18040235340595245
7.221935272216797 3.150683879852295 -0.9800205230712891
3.1561062335968018 -0.05013106390833855 -0.42509329319000244
3.275627613067627 -1.5288424491882324 -0.4272052049636841
1.3882654905319214 -1.6054863929748535 -0.1789746880531311
7.215286731719971 3.1148605346679688 -0.9816669821739197
3.1360843181610107 -0.06131100654602051 -0.42242395877838135
3.198462724685669 -1.5071282386779785 -0.4147307276725769
1.3727571964263916 -1.5993621349334717 -0.17550721764564514
3.399298667907715 3.738401174545288 -0.47407224774360657
7.189685344696045 3.0725951194763184 -0.9808030724525452
3.130896806716919 -0.07214345037937164 -0.4217565953731537
3.1754374504089355 -1.5098466873168945 -0.4105598032474518
1.3675841093063354 -1.6040676832199097 -0.17293205857276917
3.422727346420288 3.736560583114624 -0.48078012466430664
7.182521820068359 3.036971092224121 -0.9837580919265747
3.1256139278411865 -0.08512255549430847 -0.4210892915725708
3.1203629970550537 -1.4990472793579102 -0.4017643630504608
1.3612501621246338 -1.6096819639205933 -0.170724555850029
3.446239948272705 3.734654664993286 -0.486631840467453
7.11076545715332 2.9759559631347656 -0.9765300154685974
3.1104555130004883 -0.09503301233053207 -0.4190872609615326
3.0840134620666504 -1.494856595993042 -0.3959349989891052
1.3528132438659668 -1.6105068922042847 -0.1681184619665146
3.442497491836548 3.7032721042633057 -0.49130895733833313
7.107917308807373 2.942742347717285 -0.9786729216575623
3.1050782203674316 -0.10788912326097488 -0.4184199571609497
3.033562660217285 -1.4854705333709717 -0.38842830061912537
1.3432588577270508 -1.612229347229004 -0.16552266478538513
7.08605432510376 2.903313398361206 -0.9782657027244568
3.119537353515625 -0.11929528415203094 -0.42042192816734314
3.006531000137329 -1.484614610671997 -0.38381659984588623
1.3351362943649292 -1.6127558946609497 -0.16257166862487793
3.458595037460327 3.666323661804199 -0.500415563583374
7.073192596435547 2.867812156677246 -0.9790942072868347
3.1190333366394043 -0.13181690871715546 -0.42042192816734314
2.96496319770813 -1.479568600654602 -0.3769543766975403
1.319267749786377 -1.6066744327545166 -0.15923351049423218
3.525184392929077 3.7121732234954834 -0.513680636882782
7.064945697784424 2.8329310417175293 -0.9831923246383667
3.108654022216797 -0.14225053787231445 -0.4190872609615326
2.915322780609131 -1.4681676626205444 -0.3695938289165497
1.322924017906189 -1.6232216358184814 -0.15818628668785095
3.538393020629883 3.6988372802734375 -0.5190412402153015
7.0010576248168945 2.7775704860687256 -0.9768880009651184
3.1130802631378174 -0.15497832000255585 -0.41921061277389526
2.8835182189941406 -1.4654244184494019 -0.3645249903202057
1.3107975721359253 -1.620434284210205 -0.15525050461292267
3.575706958770752 3.7105212211608887 -0.5279686450958252
7.001804351806641 2.7467970848083496 -0.9808528423309326
3.1174685955047607 -0.16610771417617798 -0.4198770821094513
2.851569652557373 -1.4629920721054077 -0.3589279353618622
1.301862120628357 -1.6215065717697144 -0.15197579562664032
3.592294931411743 3.700493574142456 -0.5347796082496643
6.973583698272705 2.709076166152954 -0.9782918095588684
3.1267025470733643 -0.17864198982715607 -0.42121002078056335
2.8115592002868652 -1.4542624950408936 -0.3528187572956085
1.2965435981750488 -1.6258974075317383 -0.15052402019500732
3.615870714187622 3.697566032409668 -0.541742742061615
6.9888596534729 2.6813721656799316 -0.9841662645339966
3.1309728622436523 -0.19040152430534363 -0.4218764901161194
2.770677089691162 -1.4472438097000122 -0.34620556235313416
1.2870415449142456 -1.6273401975631714 -0.1472662389278412
3.6348228454589844 3.6923716068267822 -0.5464019179344177
6.946416854858398 2.6386961936950684 -0.9795907139778137
3.1401827335357666 -0.20306651294231415 -0.4226602613925934
2.735093832015991 -1.4408314228057861 -0.3396551012992859
1.2786673307418823 -1.6278173923492432 -0.14438341557979584
3.7108733654022217 3.7420926094055176 -0.5622797608375549
6.937455177307129 2.6048543453216553 -0.9808568954467773
3.109753370285034 -0.21254701912403107 -0.41866663098335266
2.7079029083251953 -1.439211368560791 -0.33638954162597656
1.2727845907211304 -1.6326112747192383 -0.14221566915512085
3.7557661533355713 3.7597010135650635 -0.5726191997528076
6.905389308929443 2.5612337589263916 -0.9800941348075867
2.7067923545837402 -1.452586054801941 -0.3337180018424988
1.2693623304367065 -1.6417707204818726 -0.1403852105140686
3.772547483444214 3.748918056488037 -0.5796530842781067
6.885728359222412 2.526634454727173 -0.9812575578689575
2.7100393772125244 -1.4677587747573853 -0.33372217416763306
1.2515615224838257 -1.6304774284362793 -0.1368829756975174
3.8035194873809814 3.752089023590088 -0.587956964969635
6.847874164581299 2.484304428100586 -0.9784418344497681
7.429304122924805 -0.5925276875495911 -1.002373218536377
2.709775447845459 -1.47925865650177 -0.3315664827823639
1.2401841878890991 -1.6267962455749512 -0.13407640159130096
3.816803455352783 3.7376902103424072 -0.5935515761375427
6.839076995849609 2.448744058609009 -0.9795830845832825
7.456908702850342 -0.6261741518974304 -1.0024539232254028
2.6996631622314453 -1.4878360033035278 -0.3288806080818176
1.227737307548523 -1.6239488124847412 -0.13057997822761536
3.8406424522399902 3.73355770111084 -0.6017524003982544
6.799971580505371 2.409332036972046 -0.9766785502433777
7.464316368103027 -0.6517302989959717 -1.0063973665237427
2.7026708126068115 -1.5030518770217896 -0.32940179109573364
1.2158554792404175 -1.6205452680587769 -0.12817195057868958
6.80852746963501 2.3829784393310547 -0.9817147850990295
7.437257289886475 -0.6781522631645203 -1.0017658472061157
2.7061164379119873 -1.517980694770813 -0.3272118866443634
1.2129806280136108 -1.6291178464889526 -0.12600627541542053
6.774592399597168 2.3432650566101074 -0.9793999791145325
7.464199066162109 -0.7095179557800293 -1.0057543516159058
2.692558526992798 -1.522135853767395 -0.32454368472099304
1.1987477540969849 -1.6211979389190674 -0.12296614795923233
6.7549285888671875 2.3074615001678467 -0.9790765643119812
7.422268867492676 -0.7329916954040527 -0.9991346001625061
2.69543194770813 -1.537447214126587 -0.3245040774345398
1.1899205446243286 -1.621659517288208 -0.12055551260709763
6.75855827331543 2.2797601222991943 -0.9821318984031677
7.439118385314941 -0.7635095715522766 -1.0017900466918945
2.6938416957855225 -1.5509051084518433 -0.32176920771598816
1.1749588251113892 -1.6142278909683228 -0.11721891164779663
3.9657137393951416 3.720147132873535 -0.6397212743759155
6.686337471008301 2.228137493133545 -0.9754578471183777
7.426241397857666 -0.7897036671638489 -1.0017658472061157
2.7016868591308594 -1.5673733949661255 -0.322223424911499
1.1638222932815552 -1.6101226806640625 -0.11455241590738297
3.978911876678467 3.7052054405212402 -0.6444661617279053
6.703765869140625 2.205382823944092 -0.9805241227149963
7.423674583435059 -0.8182698488235474 -0.9978554248809814
2.699859142303467 -1.580832600593567 -0.32055240869522095
1.151625156402588 -1.6067949533462524 -0.11121664196252823
3.9882383346557617 3.686689853668213 -0.6505135297775269
6.673637866973877 2.168396472930908 -0.9786936640739441
7.439826488494873 -0.8489765524864197 -1.0031179189682007
2.6901848316192627 -1.5878039598464966 -0.31840720772743225
1.146335244178772 -1.6106678247451782 -0.10983649641275406
3.9463589191436768 3.621243715286255 -0.6472034454345703
6.667442798614502 2.1381146907806396 -0.9790658354759216
7.4319167137146 -0.8756797313690186 -1.0011478662490845
2.688812494277954 -1.6003106832504272 -0.3167298436164856
1.1433916091918945 -1.6190605163574219 -0.10734644532203674
3.914531946182251 3.566948652267456 -0.6446274518966675
6.674006938934326 2.115837812423706 -0.982731819152832
7.468029975891113 -0.9090214371681213 -1.0051389932632446
2.6832120418548584 -1.6103248596191406 -0.31345298886299133
1.1317830085754395 -1.6151535511016846 -0.10474040359258652
3.9355945587158203 3.55733060836792 -0.6523175239562988
6.630171298980713 2.0714173316955566 -0.9799364805221558
7.454986572265625 -0.9351750612258911 -1.0025033950805664
2.723919630050659 -1.6490145921707153 -0.3178231716156006
1.1202168464660645 -1.6111806631088257 -0.1021551638841629
3.9739491939544678 3.5656206607818604 -0.6621805429458618
6.632497310638428 2.04549241065979 -0.9828723073005676
7.466086387634277 -0.9657005071640015 -1.0044872760772705
2.675006151199341 -1.6341127157211304 -0.3106688857078552
1.1169270277023315 -1.6196825504302979 -0.10001147538423538
3.9890215396881104 3.555337429046631 -0.6674591898918152
6.620326042175293 2.01645827293396 -0.9824838638305664
7.452324867248535 -0.9930285811424255 -1.0044769048690796
2.635809898376465 -1.6221953630447388 -0.3051033914089203
1.100322961807251 -1.6069811582565308 -0.09695667773485184
4.0237040519714355 3.55987286567688 -0.6777417659759521
6.575378894805908 1.975210189819336 -0.9783483147621155
7.4786176681518555 -1.0244431495666504 -1.0044975280761719
2.583515167236328 -1.6030960083007812 -0.29758507013320923
1.0888786315917969 -1.6028379201889038 -0.09409216791391373
3.9058358669281006 3.4301531314849854 -0.6603752970695496
6.572426795959473 1.948089361190796 -0.9817234873771667
7.479362964630127 -1.0538184642791748 -1.0064753293991089
2.5311124324798584 -1.5840727090835571 -0.29014307260513306
1.0774773359298706 -1.5986292362213135 -0.0912519171833992
6.536609649658203 1.9102001190185547 -0.9789099097251892
7.46090841293335 -1.0791213512420654 -1.0031784772872925
2.5885965824127197 -1.6332828998565674 -0.29525992274284363
1.077497124671936 -1.6107620000839233 -0.08969538658857346
6.519462585449219 1.8792811632156372 -0.9777213931083679
7.491201400756836 -1.1128851175308228 -1.006473422050476
1.0661219358444214 -1.6064668893814087 -0.08687755465507507
6.483458995819092 1.84196937084198 -0.9736558198928833
7.467446804046631 -1.138678789138794 -1.0025204420089722
1.0575294494628906 -1.6062664985656738 -0.08463862538337708
6.470603942871094 1.8114955425262451 -0.976660430431366
7.526711463928223 -1.1759599447250366 -1.0124017000198364
1.0462197065353394 -1.6018404960632324 -0.0821954533457756
6.467331886291504 1.785043716430664 -0.9775639772415161
7.512526512145996 -1.203311800956726 -1.0097564458847046
1.0376790761947632 -1.6015548706054688 -0.0796494260430336
6.445163726806641 1.7523202896118164 -0.9755701422691345
7.552261829376221 -1.2380837202072144 -1.014341115951538
2.3923985958099365 -1.5721099376678467 -0.265565425157547
1.032126784324646 -1.605236530303955 -0.07765097916126251
6.445501804351807 1.7294785976409912 -0.9795066714286804
7.494293689727783 -1.2554593086242676 -1.0057883262634277
2.3327372074127197 -1.545176386833191 -0.2585846483707428
1.0235999822616577 -1.6048753261566162 -0.0751221776008606
3.7205939292907715 3.081225872039795 -0.6548689603805542
6.433061122894287 1.6972860097885132 -0.9800859689712524
7.498912334442139 -1.2885488271713257 -1.005772590637207
2.3396308422088623 -1.5621103048324585 -0.25800108909606934
1.0578213930130005 -1.67201566696167 -0.07600785791873932
3.746727466583252 3.0797877311706543 -0.6617883443832397
6.41014289855957 1.664939284324646 -0.9803377389907837
7.523258686065674 -1.321138620376587 -1.0110371112823486
2.313383102416992 -1.5568745136260986 -0.25377121567726135
3.784226655960083 3.087440013885498 -0.6724875569343567
6.353580474853516 1.6254135370254517 -0.9731091260910034
7.5231828689575195 -1.3509234189987183 -1.010359287261963
2.4229109287261963 -1.6441370248794556 -0.2644156515598297
3.8608503341674805 3.1253392696380615 -0.6901513934135437
6.334578990936279 1.5970144271850586 -0.974000871181488
7.503860950469971 -1.373155117034912 -1.0097248554229736
2.3347721099853516 -1.596856951713562 -0.2539409101009369
1.6804847717285156 -2.7209370136260986 -0.11167837679386139
6.354733467102051 1.5761690139770508 -0.9784983396530151
7.51300573348999 -1.407378077507019 -1.0090252161026
2.3782544136047363 -1.63942289352417 -0.257289320230484
1.6653404235839844 -2.718653678894043 -0.1079908087849617
4.551028728485107 3.6317381858825684 -0.8203703165054321
6.3309807777404785 1.5456682443618774 -0.9786138534545898
7.497636318206787 -1.4343196153640747 -1.0090488195419312
2.347834825515747 -1.6311800479888916 -0.25263190269470215
1.6450533866882324 -2.70776629447937 -0.10344299674034119
4.516953468322754 3.577526807785034 -0.819039523601532
6.326921463012695 1.5189595222473145 -0.9794002771377563
7.51733922958374 -1.463945984840393 -1.0109882354736328
2.3624210357666016 -1.6541850566864014 -0.252315878868103
1.6408061981201172 -2.7221434116363525 -0.10044094920158386
4.179828643798828 3.284478187561035 -0.7603510022163391
6.2791852951049805 1.4831793308258057 -0.9734659194946289
7.5361456871032715 -1.497665286064148 -1.0129190683364868
2.3643343448638916 -1.6690906286239624 -0.25116702914237976
1.625751256942749 -2.719663143157959 -0.09625406563282013
4.175599098205566 3.2564711570739746 -0.7630648016929626
6.264908313751221 1.4544323682785034 -0.9749723672866821
7.535463809967041 -1.5262606143951416 -1.0135724544525146
2.378602981567383 -1.6922602653503418 -0.2518000602722168
1.6132659912109375 -2.7213754653930664 -0.09334150701761246
4.311977386474609 3.3374860286712646 -0.7925477027893066
6.245685577392578 1.424717903137207 -0.9756980538368225
7.495738506317139 -1.5482001304626465 -1.0076621770858765
2.3603808879852295 -1.692360281944275 -0.24848340451717377
1.595738410949707 -2.7144405841827393 -0.08905228227376938
4.447874546051025 3.419145107269287 -0.8214372396469116
6.250533103942871 1.4017421007156372 -0.9779341220855713
7.528545379638672 -1.5851410627365112 -1.012883186340332
2.3542673587799072 -1.7010762691497803 -0.24696263670921326
1.5837894678115845 -2.715768575668335 -0.08507005870342255
4.42893123626709 3.377608060836792 -0.8205031752586365
6.221415042877197 1.3701436519622803 -0.9770997166633606
7.4840803146362305 -1.6044477224349976 -1.0063263177871704
2.356210947036743 -1.7156600952148438 -0.24577511847019196
1.5738686323165894 -2.721630811691284 -0.08177778124809265
4.408929824829102 3.336867570877075 -0.8214296698570251
6.2311272621154785 1.347217321395874 -0.980083167552948
7.473021030426025 -1.6321148872375488 -1.0056744813919067
2.3621304035186768 -1.733253836631775 -0.24447883665561676
1.5639314651489258 -2.727465867996216 -0.07793667912483215
4.412533283233643 3.314228057861328 -0.8257397413253784
6.187015533447266 1.3139621019363403 -0.9769014716148376
7.510714054107666 -1.6692116260528564 -1.010197639465332
2.3475143909454346 -1.7364352941513062 -0.24262802302837372
1.5544471740722656 -2.7329888343811035 -0.0740954577922821
4.391098499298096 3.27540922164917 -0.8255575895309448
6.1721649169921875 1.2860599756240845 -0.9771499633789062
7.441391944885254 -1.6838150024414062 -1.0017359256744385
2.3612799644470215 -1.7600438594818115 -0.24212828278541565
1.534629464149475 -2.7213070392608643 -0.0708979144692421
4.116724491119385 3.046215772628784 -0.7781685590744019
6.156586647033691 1.260406732559204 -0.9784743189811707
7.449535846710205 -1.7157528400421143 -1.002354383468628
2.3708529472351074 -1.7807338237762451 -0.24221454560756683
1.527125597000122 -2.7313499450683594 -0.06718827039003372
4.095332145690918 3.0072202682495117 -0.7774806022644043
6.131864547729492 1.229719877243042 -0.9782251715660095
7.414234638214111 -1.7362627983093262 -0.998454213142395
2.3524563312530518 -1.780440092086792 -0.23996348679065704
1.5098670721054077 -2.723872423171997 -0.06360497325658798
4.0934648513793945 2.9828176498413086 -0.7822844386100769
6.033509731292725 1.1881024837493896 -0.9673653841018677
7.358780860900879 -1.7531089782714844 -0.9959147572517395
2.35394024848938 -1.795170545578003 -0.23922418057918549
1.5023071765899658 -2.733816623687744 -0.06098490208387375
4.079460620880127 2.9497828483581543 -0.7847350239753723
5.89673376083374 1.1376667022705078 -0.9490253329277039
7.1978254318237305 -1.7439970970153809 -0.9750306010246277
2.339226007461548 -1.798196792602539 -0.23687385022640228
1.4784263372421265 -2.712752342224121 -0.05770246684551239
4.08994722366333 2.9584527015686035 -0.7949753403663635
5.923820495605469 1.1439651250839233 -0.965292751789093
7.205458164215088 -1.7458463907241821 -0.9918658137321472
2.3662328720092773 -1.8196144104003906 -0.24488486349582672
1.4731453657150269 -2.7041852474212646 -0.06020304560661316
4.130890369415283 3.0122971534729004 -0.8015185594558716
6.006783485412598 1.1828396320343018 -0.9795114994049072
7.225423812866211 -1.7226715087890625 -1.0003372430801392
2.344953775405884 -1.7896121740341187 -0.24511228501796722
1.4926294088363647 -2.716205596923828 -0.06546243280172348
4.140176773071289 3.042374849319458 -0.8018039464950562
5.939270973205566 1.1932528018951416 -0.9692424535751343
7.226479530334473 -1.6936248540878296 -1.0048519372940063
2.351222276687622 -1.7807971239089966 -0.24923080205917358
1.5117464065551758 -2.7283856868743896 -0.0702400729060173
4.23996114730835 3.140843152999878 -0.8206282258033752
5.958662509918213 1.2209702730178833 -0.9742536544799805
7.231952667236328 -1.6669690608978271 -1.0100334882736206
2.3614704608917236 -1.774976372718811 -0.25326114892959595
1.5265578031539917 -2.7314534187316895 -0.07538045942783356
4.315428733825684 3.2224833965301514 -0.8337727785110474
5.92976713180542 1.238792896270752 -0.9702996611595154
7.213624954223633 -1.6336003541946411 -1.0105350017547607
2.3517746925354004 -1.7542362213134766 -0.2546254098415375
1.5311223268508911 -2.7173044681549072 -0.07949463278055191
4.32876443862915 3.254856586456299 -0.8355267643928528
5.958768367767334 1.268749475479126 -0.9758352637290955
7.160852432250977 -1.5940800905227661 -1.0075346231460571
2.349966287612915 -1.739518404006958 -0.25682270526885986
