# .PCD v0.7 - Point Cloud Data file format
VERSION 0.7
FIELDS x y z
SIZE 4 4 4
TYPE F F F
COUNT 1 1 1
WIDTH 829
HEIGHT 1
VIEWPOINT 0 0 0 1 0 0 0
POINTS 829
DATA ascii
2.359921932220459 0.46342602372169495 0.0054567670449614525
11.307209968566895 -2.631270408630371 0.3628097474575043
2.7389276027679443 -2.0639302730560303 0.19414116442203522
1.4664441347122192 -2.6488051414489746 0.21118247509002686
3.028693914413452 2.1835594177246094 -0.09646757692098618
2.3336946964263916 0.46716541051864624 0.004984656348824501
11.34619140625 -2.596540689468384 0.3576524555683136
2.562701940536499 -1.9164484739303589 0.17834940552711487
1.556506872177124 -2.787325382232666 0.21932052075862885
3.0126097202301025 2.188789129257202 -0.09490945935249329
2.3319668769836426 0.47571566700935364 0.004984656348824501
11.33143424987793 -2.5494930744171143 0.3508032560348511
2.617602825164795 -1.9432947635650635 0.17884333431720734
1.5839802026748657 -2.8122596740722656 0.21777617931365967
2.335103988647461 0.4852771461009979 0.004578868392854929
11.331121444702148 -2.5058252811431885 0.3444250822067261
2.8178024291992188 -2.0759451389312744 0.18832452595233917
1.5993174314498901 -2.815307855606079 0.21505878865718842
2.328589677810669 0.49198436737060547 0.00456926878541708
11.359939575195312 -2.4685609340667725 0.3389315903186798
2.837615966796875 -2.074540138244629 0.18606308102607727
1.612235188484192 -2.8139824867248535 0.21142810583114624
2.336459159851074 0.50302654504776 0.004588467534631491
11.344643592834473 -2.4217278957366943 0.33212918043136597
2.950413942337036 -2.140455722808838 0.18975387513637543
1.6301368474960327 -2.8212051391601562 0.20899195969104767
2.349252939224243 0.5147976875305176 0.004197514615952969
11.348719596862793 -2.379141092300415 0.32591480016708374
2.7395339012145996 -1.972182273864746 0.172771617770195
1.6405574083328247 -2.815368175506592 0.20614849030971527
2.352045774459839 0.5253134965896606 0.005047488026320934
11.372106552124023 -2.340564250946045 0.3243098258972168
2.7150111198425293 -1.9380289316177368 0.16839821636676788
1.6671512126922607 -2.834784746170044 0.20402491092681885
2.844585657119751 2.1638569831848145 -0.08173100650310516
2.3600432872772217 0.535322368144989 0.0050684320740401745
11.36607551574707 -2.2959320545196533 0.3178195655345917
2.7296900749206543 -1.9348747730255127 0.16598263382911682
1.6842833757400513 -2.84230375289917 0.201494038105011
2.861238718032837 2.1915414333343506 -0.08052977919578552
2.3385777473449707 0.5394733548164368 0.004607665818184614
11.359868049621582 -2.2513747215270996 0.3113449513912201
2.7368340492248535 -1.924906849861145 0.16423070430755615
1.6922187805175781 -2.8319766521453857 0.19831077754497528
2.351186990737915 0.5514659285545349 0.005479456391185522
11.402441024780273 -2.2164101600646973 0.31025823950767517
2.752155065536499 -1.9206441640853882 0.16237801313400269
1.7104038000106812 -2.838728189468384 0.19631873071193695
2.354013442993164 0.5612393021583557 0.005490800365805626
11.391006469726562 -2.1708903312683105 0.3036525845527649
2.730548858642578 -1.8907219171524048 0.15778827667236328
1.728695273399353 -2.8454411029815674 0.1931382268667221
2.3470795154571533 0.5686855912208557 0.0063224476762115955
11.379284858703613 -2.12546443939209 0.3011086583137512
2.754699945449829 -1.891129970550537 0.1558215618133545
1.7428172826766968 -2.8429055213928223 0.18993590772151947
2.335170030593872 0.5753016471862793 0.00587651738896966
11.411735534667969 -2.0882694721221924 0.2956843674182892
2.736260414123535 -1.865151047706604 0.15269018709659576
1.7628145217895508 -2.8542401790618896 0.18814577162265778
2.866933822631836 2.2820966243743896 -0.07035862654447556
2.347594738006592 0.5874975919723511 0.0067579057067632675
11.399683952331543 -2.0429117679595947 0.29315346479415894
2.739351511001587 -1.8518925905227661 0.15015147626399994
1.7796419858932495 -2.8557801246643066 0.1851821094751358
2.335733652114868 0.5936347842216492 0.00672998046502471
11.397397994995117 -1.9994151592254639 0.28684166073799133
2.737269163131714 -1.8372889757156372 0.14739635586738586
1.7945135831832886 -2.858482837677002 0.18219731748104095
2.3432223796844482 0.6046897172927856 0.007602641358971596
11.439184188842773 -1.9635558128356934 0.2856833040714264
2.744069814682007 -1.8273005485534668 0.14509479701519012
1.8077330589294434 -2.856238603591919 0.17951710522174835
2.7103214263916016 2.2057619094848633 -0.06160606071352959
2.3264777660369873 0.6094720959663391 0.008395017124712467
11.416775703430176 -1.9166587591171265 0.282924622297287
2.763357162475586 -1.8255603313446045 0.1428641676902771
1.8317019939422607 -2.8707714080810547 0.17787125706672668
2.725438356399536 2.23471999168396 -0.06028945744037628
2.3193960189819336 0.6167101263999939 0.008377563208341599
11.38929271697998 -1.8691507577896118 0.27804073691368103
2.745023250579834 -1.799031138420105 0.13985282182693481
1.8423278331756592 -2.8642191886901855 0.17371070384979248
2.7326784133911133 2.2574567794799805 -0.05815699324011803
2.3171186447143555 0.6252065896987915 0.00879643950611353
11.45040512084961 -1.8361074924468994 0.2773412764072418
2.7600762844085693 -1.794469952583313 0.13740567862987518
1.8583287000656128 -2.8659536838531494 0.17123942077159882
2.5822396278381348 2.14915132522583 -0.05277658626437187
2.314697742462158 0.6340981721878052 0.009634191170334816
11.437353134155273 -1.791041612625122 0.27484259009361267
2.758298397064209 -1.7789651155471802 0.1352701336145401
1.8743661642074585 -2.867607593536377 0.1687505543231964
2.5862374305725098 2.16780424118042 -0.05124526098370552
2.3174002170562744 0.6431075930595398 0.009654263034462929
11.434097290039062 -1.7476205825805664 0.2685488760471344
2.760651111602783 -1.7661890983581543 0.133348286151886
1.8876920938491821 -2.8650107383728027 0.1660025268793106
2.570661783218384 2.17084002494812 -0.04874446988105774
2.3003625869750977 0.6483359336853027 0.00959404930472374
11.470136642456055 -1.7101303339004517 0.2672211527824402
2.7503299713134766 -1.7454124689102173 0.12969259917736053
1.906564474105835 -2.870697259902954 0.16311870515346527
2.5741307735443115 2.1899824142456055 -0.04719216749072075
7.249655246734619 2.071959972381592 0.03289934992790222
11.446648597717285 -1.6637648344039917 0.2665300965309143
2.782134771347046 -1.7513256072998047 0.12916480004787445
1.9227089881896973 -2.872108221054077 0.16057541966438293
2.5737032890319824 2.205930471420288 -0.044965341687202454
7.204309940338135 2.084867000579834 0.03534278646111488
11.452238082885742 -1.6258164644241333 0.2604736089706421
2.750450372695923 -1.7173373699188232 0.12570030987262726
1.9361096620559692 -2.8693201541900635 0.1571827381849289
2.5879383087158203 2.2354252338409424 -0.04297585412859917
7.187012195587158 2.1084392070770264 0.037910133600234985
11.483476638793945 -1.5832511186599731 0.25901323556900024
2.7525522708892822 -1.704660177230835 0.12324635684490204
1.9494986534118652 -2.8664474487304688 0.15438447892665863
2.647632598876953 2.3039867877960205 -0.042269106954336166
7.226410865783691 2.1515402793884277 0.0381632074713707
11.469386100769043 -1.538493275642395 0.2585664689540863
2.767944574356079 -1.6988577842712402 0.12192626297473907
1.969542145729065 -2.871065855026245 0.15201355516910553
7.224023342132568 2.1769344806671143 0.03818850964307785
11.460208892822266 -1.494523286819458 0.2521800398826599
2.748049736022949 -1.6741267442703247 0.11799274384975433
1.9876601696014404 -2.8769781589508057 0.14900606870651245
4.224676609039307 3.7284865379333496 -0.06097537651658058
7.225161552429199 2.2075748443603516 0.04087628424167633
11.500323295593262 -1.4569072723388672 0.25294357538223267
2.762773036956787 -1.6692429780960083 0.11666907370090485
1.9982651472091675 -2.869779586791992 0.1459544599056244
4.237176895141602 3.7672348022460938 -0.05640636757016182
7.226553440093994 2.236992120742798 0.0448913499712944
11.495707511901855 -1.4135321378707886 0.25070396065711975
2.7774972915649414 -1.6642736196517944 0.1153349056839943
2.017451524734497 -2.874807119369507 0.14351516962051392
4.252498626708984 3.810192823410034 -0.05281814560294151
7.232603073120117 2.267946720123291 0.047626230865716934
11.491013526916504 -1.370220422744751 0.24442827701568604
2.7578723430633545 -1.6388071775436401 0.11202738434076309
2.036715030670166 -2.879751682281494 0.14043401181697845
4.249659061431885 3.8358216285705566 -0.04995941370725632
7.2337727546691895 2.2974674701690674 0.04768906161189079
11.515820503234863 -1.330389142036438 0.24485060572624207
2.76880145072937 -1.6302978992462158 0.1099587231874466
2.059948205947876 -2.8879408836364746 0.13751497864723206
7.244326114654541 2.3300833702087402 0.05047105625271797
11.510725975036621 -1.2870663404464722 0.24261793494224548
2.7483386993408203 -1.60599946975708 0.10782154649496078
2.072484016418457 -2.8852291107177734 0.13522863388061523
2.4812684059143066 2.27286696434021 -0.024666516110301018
7.2499823570251465 2.3612592220306396 0.0532321073114872
11.505509376525879 -1.2438032627105713 0.2383689433336258
2.7548437118530273 -1.5950006246566772 0.10504365712404251
2.0988011360168457 -2.8972504138946533 0.13180887699127197
2.4806816577911377 2.2883057594299316 -0.022383682429790497
7.279247760772705 2.4003360271453857 0.05618688091635704
11.534892082214355 -1.204224705696106 0.23685960471630096
2.7563843727111816 -1.582431674003601 0.10321459919214249
2.112406015396118 -2.8936479091644287 0.12949183583259583
2.479614019393921 2.304199457168579 -0.020086877048015594
7.2846198081970215 2.431746006011963 0.05763721093535423
11.514358520507812 -1.1594349145889282 0.23634913563728333
2.800743579864502 -1.5955729484558105 0.10298744589090347
2.1284806728363037 -2.894397497177124 0.12671780586242676
2.4529128074645996 2.296198606491089 -0.017006415873765945
7.284682750701904 2.462895393371582 0.060396499931812286
11.209663391113281 -1.0912164449691772 0.23001927137374878
2.7761597633361816 -1.5681180953979492 0.10020031034946442
2.1480653285980225 -2.8987090587615967 0.12409812211990356
2.4481263160705566 2.3086113929748535 -0.014682535082101822
7.28504753112793 2.4928085803985596 0.06316275149583817
2.768852949142456 -1.5506322383880615 0.09806753695011139
2.1647191047668457 -2.8989102840423584 0.12128465622663498
2.436837673187256 2.3132810592651367 -0.012315015308558941
7.290894508361816 2.521848678588867 0.0659787505865097
11.531070709228516 -1.0372354984283447 0.23443056643009186
2.7920398712158203 -1.5502021312713623 0.09701317548751831
2.184406280517578 -2.903019666671753 0.11861681938171387
2.4423937797546387 2.3364500999450684 -0.01061856560409069
7.2957377433776855 2.553501605987549 0.06880520284175873
11.141413688659668 -0.9610328078269958 0.22253048419952393
2.7846264839172363 -1.5327606201171875 0.09433865547180176
2.2101900577545166 -2.9149861335754395 0.11624031513929367
2.448220729827881 2.359269857406616 -0.007714347913861275
7.432421684265137 2.6319587230682373 0.07156100869178772
2.812204599380493 -1.534537434577942 0.09340289980173111
2.2209322452545166 -2.90696120262146 0.11240944266319275
4.5418877601623535 4.409087657928467 -0.009943136014044285
7.435891151428223 2.666827917098999 0.07445463538169861
10.974076271057129 -0.8617513179779053 0.21712757647037506
2.792003631591797 -1.5090008974075317 0.09086687862873077
2.241804599761963 -2.90999174118042 0.10902345180511475
4.505788803100586 4.403160572052002 -0.0065973433665931225
7.375275611877441 2.672724723815918 0.07667458057403564
11.06667709350586 -0.8321076035499573 0.2150285691022873
2.841109275817871 -1.523389458656311 0.08948463201522827
2.2668042182922363 -2.922346353530884 0.10718312114477158
4.459583759307861 4.393143653869629 -0.00109257607255131
7.332530975341797 2.6876795291900635 0.08042160421609879
11.543680191040039 -0.8213862180709839 0.2222103774547577
2.890836000442505 -1.536437749862671 0.08972923457622528
2.24985671043396 -2.8786497116088867 0.10269126296043396
7.299190998077393 2.7058472633361816 0.08016417175531387
11.576539039611816 -0.7810901999473572 0.2227863073348999
2.9097554683685303 -1.5328422784805298 0.08841820806264877
2.2635393142700195 -2.874380111694336 0.09963900595903397
7.307432174682617 2.7408623695373535 0.08445657789707184
11.579324722290039 -0.7386547923088074 0.2227863073348999
2.9818551540374756 -1.5568886995315552 0.08867252618074417
2.9494071006774902 2.9690332412719727 0.008034617640078068
7.320683002471924 2.7764811515808105 0.08746012300252914
11.57197380065918 -0.6956095695495605 0.22259432077407837
2.9069020748138428 2.9477763175964355 0.011561045423150063
7.31974983215332 2.8068578243255615 0.09167656302452087
11.584466934204102 -0.6537569761276245 0.2207612246274948
2.8785858154296875 2.9405412673950195 0.013645831495523453
7.323398113250732 2.8390886783599854 0.09185196459293365
11.5918550491333 -0.6115608811378479 0.2168044149875641
3.8500335216522217 -1.956614375114441 0.10630075633525848
2.8329336643218994 2.9152050018310547 0.01702738180756569
7.331517696380615 2.87319016456604 0.09620888531208038
11.613990783691406 -0.570050835609436 0.21717789769172668
3.853440999984741 -1.938921570777893 0.10391907393932343
2.1334805488586426 -2.607532262802124 0.07704433798789978
2.8197696208953857 2.9209771156311035 0.019840823486447334
7.330201625823975 2.903712034225464 0.09908322244882584
11.610916137695312 -0.5292792916297913 0.21708452701568604
3.85988187789917 -1.9261486530303955 0.10241328924894333
2.167583703994751 -2.6313602924346924 0.07498376816511154
2.784308671951294 2.9064950942993164 0.023182209581136703
7.333384990692139 2.936114549636841 0.10340780019760132
11.39317512512207 -0.4735316038131714 0.21297626197338104
3.8669631481170654 -1.9120121002197266 0.1001545786857605
2.1617391109466553 -2.6038272380828857 0.07207141816616058
2.7736220359802246 2.9166646003723145 0.026694614440202713
7.341078281402588 2.9704601764678955 0.10643395036458969
11.269795417785645 -0.43097206950187683 0.210642009973526
3.860509157180786 -1.891243815422058 0.0983058288693428
2.1648929119110107 -2.5882649421691895 0.06891389936208725
2.7766284942626953 2.9413397312164307 0.029651133343577385
7.334716796875 2.9992177486419678 0.11065027862787247
11.276368141174316 -0.3898385167121887 0.20679685473442078
3.8674607276916504 -1.8771040439605713 0.09605492651462555
2.1711814403533936 -2.5765349864959717 0.06587151437997818
2.735041379928589 2.918642044067383 0.03281182050704956
7.295915603637695 3.014610528945923 0.11298701167106628
11.562661170959473 -0.3532712459564209 0.21201945841312408
3.8119280338287354 -1.8312807083129883 0.09227696061134338
2.175069808959961 -2.5602216720581055 0.06274443119764328
2.735555648803711 2.9386613368988037 0.03503703698515892
7.368915557861328 3.0734212398529053 0.11566852033138275
11.65372085571289 -0.31737589836120605 0.21366870403289795
3.858654737472534 -1.838004469871521 0.09027481079101562
2.1770904064178467 -2.5454447269439697 0.05905015766620636
2.7077786922454834 2.9302845001220703 0.038300659507513046
7.292509078979492 3.0744786262512207 0.11879836022853851
11.649807929992676 -0.2745429277420044 0.21357707679271698
3.8744354248046875 -1.8281289339065552 0.08899055421352386
2.186431646347046 -2.5374789237976074 0.05671176314353943
2.700376510620117 2.943847894668579 0.04183477908372879
7.381755352020264 3.145540475845337 0.12605121731758118
11.645737648010254 -0.2317429482936859 0.213485449552536
3.8720664978027344 -1.8096897602081299 0.08803690969944
2.1957428455352783 -2.529477596282959 0.05437334626913071
2.682307004928589 2.9467837810516357 0.04381648078560829
7.365050315856934 3.171891927719116 0.12457309663295746
11.67164134979248 -0.1853903979063034 0.2098689079284668
3.8741912841796875 -1.7934108972549438 0.08495353162288666
2.178706645965576 -2.491347312927246 0.05025831609964371
2.645662784576416 2.9259591102600098 0.04750758409500122
7.381900310516357 3.208209753036499 0.1320631355047226
11.657121658325195 -0.14649543166160583 0.21366870403289795
3.876234531402588 -1.7771342992782593 0.08262133598327637
2.1878459453582764 -2.4833712577819824 0.047947753220796585
7.351780891418457 3.227206230163574 0.13173502683639526
11.657652854919434 -0.10376960039138794 0.20959925651550293
3.8827474117279053 -1.7629268169403076 0.08113284409046173
2.1430180072784424 -2.4162864685058594 0.043970465660095215
7.399209022521973 3.280423164367676 0.13986460864543915
11.682877540588379 -0.061171963810920715 0.2141268253326416
3.8797855377197266 -1.7452727556228638 0.0794576108455658
2.185612440109253 -2.445333242416382 0.0429338738322258
7.417892932891846 3.3244006633758545 0.1418880671262741
11.673099517822266 -0.01833607628941536 0.2098689079284668
3.877084732055664 -1.7270002365112305 0.07556702196598053
2.1845529079437256 -2.426191806793213 0.03931869566440582
7.4216179847717285 3.352548599243164 0.14499254524707794
11.678056716918945 0.020382076501846313 0.21199698746204376
3.887986660003662 -1.714806318283081 0.0741727277636528
2.2404751777648926 -2.4700334072113037 0.0378335639834404
7.4365010261535645 3.392144203186035 0.14980632066726685
3.8942456245422363 -1.7005447149276733 0.0741727277636528
2.266397714614868 -2.480282783508301 0.03518519550561905
7.437567710876465 3.4256181716918945 0.15436871349811554
3.8913092613220215 -1.682307481765747 0.07177846878767014
2.241631507873535 -2.4351956844329834 0.03177322819828987
7.461150646209717 3.46968412399292 0.1594310849905014
11.692124366760254 0.14897629618644714 0.21226924657821655
3.892876148223877 -1.66607666015625 0.07021574676036835
2.2913520336151123 -2.4709725379943848 0.02999657578766346
7.452883243560791 3.499119758605957 0.1609649509191513
3.1590638160705566 0.05183255299925804 0.05680391192436218
3.899000883102417 -1.6518161296844482 0.06725955009460449
2.320891857147217 -2.484501361846924 0.026703262701630592
7.471498966217041 3.5413384437561035 0.16886456310749054
3.1338422298431396 0.06290869414806366 0.05744866281747818
3.900428533554077 -1.6355855464935303 0.06644195318222046
2.3197124004364014 -2.465064764022827 0.024813123047351837
7.467461585998535 3.5730018615722656 0.1705135852098465
3.113619327545166 0.07392024248838425 0.055994998663663864
3.9018216133117676 -1.6193796396255493 0.06341415643692017
2.3429388999938965 -2.4706690311431885 0.02139410562813282
2.65490460395813 3.1819956302642822 0.08608304709196091
7.481241703033447 3.6133525371551514 0.17548154294490814
3.0983355045318604 0.08492081612348557 0.05572535842657089
3.8938775062561035 -1.5993777513504028 0.061719611287117004
2.3692543506622314 -2.480149745941162 0.019755272194743156
2.655928611755371 3.207045793533325 0.09013223648071289
7.467892169952393 3.640721082687378 0.17838162183761597
3.0879833698272705 0.09650430083274841 0.05608482286334038
3.895101547241211 -1.5832207202911377 0.060178641229867935
2.3852736949920654 -2.478666305541992 0.0168109443038702
2.650453805923462 3.2244198322296143 0.09399112313985825
7.440901279449463 3.661377429962158 0.1852966696023941
3.0676047801971436 0.10712312161922455 0.05679326131939888
3.9101641178131104 -1.5726686716079712 0.05958617106080055
2.3769493103027344 -2.451964855194092 0.014304676093161106
7.494557857513428 3.721961259841919 0.188432514667511
3.0622057914733887 0.11817332357168198 0.0561659149825573
3.9066498279571533 -1.5546447038650513 0.05650944262742996
2.4243531227111816 -2.482592821121216 0.01211256068199873
7.484590530395508 3.7529067993164062 0.19292908906936646
3.0617520809173584 0.12939608097076416 0.0561659149825573
3.908224582672119 -1.537127137184143 0.05497629940509796
2.4378132820129395 -2.476410150527954 0.009097517468035221
2.6653804779052734 3.3150649070739746 0.10544374585151672
7.4809346199035645 3.782170057296753 0.19754862785339355
3.9040005207061768 -1.5205364227294922 0.05338294431567192
2.4530560970306396 -2.475421190261841 0.00547422282397747
2.643800735473633 3.3130176067352295 0.1087709441781044
5.0670037269592285 2.5851101875305176 0.13703349232673645
3.90982723236084 -1.5055415630340576 0.05192047357559204
2.476677417755127 -2.480137825012207 0.003058688947930932
5.101871490478516 2.6265101432800293 0.14124220609664917
2.351261854171753 0.12528200447559357 0.04356616735458374
3.91066312789917 -1.4894280433654785 0.050397779792547226
2.4680216312408447 -2.4534194469451904 0.0012147491797804832
7.789029598236084 4.046076774597168 0.22064222395420074
2.3507790565490723 0.1338985413312912 0.043977122753858566
3.911433696746826 -1.4733285903930664 0.04887857660651207
2.5232625007629395 -2.4900128841400146 -0.0024748765863478184
7.579249858856201 3.972447633743286 0.21959416568279266
2.345282554626465 0.14221109449863434 0.04388375207781792
3.9074528217315674 -1.4554980993270874 0.047306135296821594
2.543086051940918 -2.491243362426758 -0.0043493593111634254
2.7458653450012207 3.543778419494629 0.130705788731575
7.520351409912109 3.976781129837036 0.22276583313941956
2.3397490978240967 0.15048466622829437 0.04419959336519241
3.912776470184326 -1.4411723613739014 0.04585061967372894
2.548612356185913 -2.478417158126831 -0.006825105287134647
7.465932846069336 3.983088493347168 0.22601859271526337
2.3441615104675293 0.15939785540103912 0.04470391198992729
3.913349151611328 -1.4251161813735962 0.04434186965227127
2.5396888256073 -2.451692581176758 -0.009241507388651371
2.693615674972534 3.526928663253784 0.13714012503623962
7.574375152587891 4.0766754150390625 0.2357618361711502
2.34854793548584 0.16834603250026703 0.04479902610182762
3.9138565063476562 -1.409075140953064 0.04283660277724266
2.549077033996582 -2.4419162273406982 -0.012321999296545982
2.5507936477661133 3.3654227256774902 0.13418450951576233
5.4685564041137695 2.9691836833953857 0.17164011299610138
2.3479232788085938 0.17695334553718567 0.044388074427843094
3.9096012115478516 -1.391377568244934 0.03983652964234352
2.529015302658081 -2.40498423576355 -0.015227949246764183
2.541374444961548 3.378648281097412 0.13803277909755707
5.448736190795898 2.9843320846557617 0.17678585648536682
2.347243070602417 0.18555647134780884 0.04520997405052185
3.9335405826568604 -1.383675217628479 0.040028512477874756
2.5487143993377686 -2.405989646911621 -0.01712859235703945
2.51694393157959 3.371824026107788 0.14105205237865448
7.4937615394592285 4.14019250869751 0.2481144368648529
2.3465394973754883 0.1941576600074768 0.04562092572450638
3.9244303703308105 -1.3643276691436768 0.038434214890003204
2.5575037002563477 -2.396620750427246 -0.020187240093946457
2.5104432106018066 3.3889567852020264 0.14506760239601135
7.434841632843018 4.143280029296875 0.2481515258550644
2.3458199501037598 0.20275753736495972 0.04520997405052185
3.9201951026916504 -1.346005916595459 0.03689489886164665
2.555274248123169 -2.377002000808716 -0.023146385326981544
2.4931931495666504 3.3891098499298096 0.14839553833007812
7.476050853729248 4.2022294998168945 0.25753000378608704
2.3450450897216797 0.21135258674621582 0.04603187367320061
3.925114154815674 -1.3316328525543213 0.03544807806611061
2.5566134452819824 -2.360827684402466 -0.02490214630961418
2.477731227874756 3.394083261489868 0.15188650786876678
7.443049430847168 4.219653606414795 0.2629029452800751
2.3492236137390137 0.22041240334510803 0.04654141888022423
3.934720754623413 -1.3188303709030151 0.03404226526618004
2.5435283184051514 -2.330714225769043 -0.027095956727862358
7.485307693481445 4.276472568511963 0.26941317319869995
2.343496322631836 0.22771725058555603 0.04685376212000847
3.9300458431243896 -1.3012604713439941 0.03251514956355095
4.067254543304443 5.660183429718018 0.2653219997882843
7.45646858215332 4.296322345733643 0.2734505832195282
2.3475284576416016 0.237625390291214 0.04736505076289177
3.9395415782928467 -1.28840172290802 0.032554417848587036
2.456613063812256 -2.218163251876831 -0.03004019521176815
4.043444633483887 5.670793533325195 0.2712097764015198
7.460595607757568 4.338684558868408 0.2802698612213135
2.3565852642059326 0.24727126955986023 0.047565750777721405
3.9442527294158936 -1.2739589214324951 0.030384164303541183
2.4609785079956055 -2.205785036087036 -0.03345564380288124
4.012930870056152 5.667665481567383 0.2764918804168701
7.484842777252197 4.3860650062561035 0.286272794008255
2.3557441234588623 0.25508370995521545 0.047979310154914856
3.9489052295684814 -1.259497046470642 0.0289373230189085
2.469028949737549 -2.1967344284057617 -0.03576284274458885
7.490097522735596 4.426103115081787 0.29165276885032654
2.3547847270965576 0.2637152671813965 0.04839286953210831
3.9391977787017822 -1.240512728691101 0.027390995994210243
2.4736783504486084 -2.1839118003845215 -0.03801243007183075
7.508035659790039 4.473911285400391 0.2975691556930542
2.343862533569336 0.27119413018226624 0.048600491136312485
3.9437222480773926 -1.2260677814483643 0.026670191437005997
2.470365047454834 -2.1649270057678223 -0.04013284668326378
7.49140739440918 4.501291751861572 0.303670734167099
2.33776593208313 0.28000324964523315 0.049730334430933
3.9481894969940186 -1.211605191230774 0.026670191437005997
2.4707231521606445 -2.1492812633514404 -0.04172533005475998
7.500363826751709 4.544171333312988 0.30930423736572266
2.3416764736175537 0.28918132185935974 0.05024772137403488
3.9480361938476562 -1.1949905157089233 0.025198034942150116
2.4899137020111084 -2.149994134902954 -0.04421309381723404
7.530424118041992 4.600199222564697 0.31586337089538574
2.340609550476074 0.2977631390094757 0.049835916608572006
3.9524049758911133 -1.1805168390274048 0.022318288683891296
2.501549005508423 -2.1440868377685547 -0.04658041149377823
7.51332426071167 4.627652645111084 0.32202383875846863
2.339493751525879 0.30633875727653503 0.05024772137403488
3.9567089080810547 -1.1660237312316895 0.02159835211932659
2.4983127117156982 -2.124727249145508 -0.04865799471735954
3.6779980659484863 5.48376989364624 0.3044591546058655
7.525881290435791 4.673521041870117 0.32793885469436646
2.3433008193969727 0.3155773878097534 0.05076685547828674
3.9561619758605957 -1.1501201391220093 0.020134037360548973
2.4869556427001953 -2.099409341812134 -0.05055927857756615
3.685394048690796 5.538571357727051 0.3125678598880768
7.546618461608887 4.724812984466553 0.3358195126056671
2.337289333343506 0.32266271114349365 0.05065952613949776
3.965160369873047 -1.1369915008544922 0.01943853311240673
2.4946060180664062 -2.090256929397583 -0.052831415086984634
3.6841468811035156 5.580941200256348 0.32121357321739197
7.529101848602295 4.752346515655518 0.3404814302921295
2.33099102973938 0.33133408427238464 0.05219590663909912
3.950056314468384 -1.1170086860656738 0.019344285130500793
2.5175960063934326 -2.093862533569336 -0.055442094802856445
3.7373838424682617 5.706972599029541 0.33364391326904297
7.562012672424316 4.81196928024292 0.34903180599212646
2.344710111618042 0.3412203788757324 0.052941903471946716
3.9589459896087646 -1.1038681268692017 0.017933201044797897
2.52173113822937 -2.0809733867645264 -0.05764000490307808
3.689044237136841 5.678460121154785 0.3382927477359772
7.586966037750244 4.865137577056885 0.358842670917511
2.3384907245635986 0.34907251596450806 0.05324288085103035
3.9581408500671387 -1.0880242586135864 0.01862783543765545
2.5293173789978027 -2.071697235107422 -0.05935189872980118
3.6788330078125 5.708431243896484 0.3464025855064392
7.552088737487793 4.881926536560059 0.3643251955509186
2.3420023918151855 0.3592134118080139 0.05376897752285004
4.020209789276123 -1.0885003805160522 0.017446259036660194
2.532982110977173 -2.059232711791992 -0.0615401528775692
4.243659496307373 6.633073806762695 0.4085460305213928
7.573376178741455 4.931373119354248 0.37087881565093994
2.3407888412475586 0.3669763207435608 0.0541825145483017
4.144948959350586 -1.1059848070144653 0.01722111739218235
2.5638298988342285 -2.0687499046325684 -0.06383055448532104
4.224477767944336 6.656711578369141 0.4159444570541382
7.5968523025512695 4.986403942108154 0.37768709659576416
2.339418649673462 0.3755517601966858 0.05459604784846306
4.274707317352295 -1.1238410472869873 0.01620011031627655
2.6068410873413086 -2.086980104446411 -0.06703358888626099
4.1466593742370605 6.587332725524902 0.417468786239624
7.569970607757568 5.008554458618164 0.38360878825187683
2.338016986846924 0.3841221034526825 0.05500957742333412
4.409487247467041 -1.1420131921768188 0.015899917110800743
2.6144356727600098 -2.0773818492889404 -0.06936486810445786
4.135474681854248 6.623286724090576 0.4269848167896271
7.584641933441162 5.058327674865723 0.390071302652359
2.3415136337280273 0.3935156464576721 0.055540040135383606
2.610217809677124 -2.0584683418273926 -0.07137411832809448
4.113290309906006 6.63664436340332 0.4337987005710602
7.574114799499512 5.091512680053711 0.39687028527259827
2.3301234245300293 0.40080711245536804 0.05571884289383888
7.399441242218018 -1.8613572120666504 0.022638631984591484
2.601248264312744 -2.037440776824951 -0.07325157523155212
4.1384100914001465 6.732154369354248 0.4459649622440338
7.579982757568359 5.135893821716309 0.40456584095954895
2.3582100868225098 0.41411876678466797 0.05809718370437622
7.5718889236450195 -1.8724507093429565 0.02042032778263092
2.613687753677368 -2.0295770168304443 -0.07451751828193665
4.077083110809326 6.687205791473389 0.45022282004356384
7.635180473327637 5.214227199554443 0.4133797883987427
2.332066774368286 0.41834452748298645 0.057904262095689774
7.651902198791504 -1.861088514328003 0.019242234528064728
2.6052298545837402 -2.0077462196350098 -0.07636351138353348
3.99031400680542 6.599184989929199 0.4514121115207672
2.33540415763855 0.427784264087677 0.05926959216594696
11.295928001403809 -2.703573226928711 0.030407963320612907
2.612539052963257 -1.998159646987915 -0.07808567583560944
3.9992246627807617 6.669003009796143 0.46335387229919434
3.1107115745544434 2.15797758102417 0.17522965371608734
2.333810329437256 0.4363391697406769 0.05968397483229637
11.296028137207031 -2.6598615646362305 0.030381781980395317
2.615830421447754 -1.9855234622955322 -0.07968652993440628
3.984750509262085 6.700424671173096 0.47134673595428467
3.0617482662200928 2.1406750679016113 0.17552609741687775
2.332174777984619 0.44488614797592163 0.06051274389028549
11.310576438903809 -2.619570732116699 0.028368551284074783
2.6154041290283203 -1.9694174528121948 -0.08172964304685593
3.0741419792175293 2.16615891456604 0.1806376427412033
2.3256118297576904 0.4524743854999542 0.060798853635787964
11.310356140136719 -2.575878381729126 0.026319541037082672
2.6185779571533203 -1.956809163093567 -0.08274595439434052
12.162487983703613 20.78028678894043 1.5064165592193604
3.053889036178589 2.1686818599700928 0.1818791925907135
2.3288092613220215 0.46196144819259644 0.062170252203941345
2.629711866378784 -1.9501495361328125 -0.08458669483661652
12.045501708984375 20.754526138305664 1.5223628282546997
3.0986099243164062 2.217568874359131 0.18769194185733795
2.3319780826568604 0.47148004174232483 0.06313162297010422
2.6287548542022705 -1.9345465898513794 -0.08603738248348236
11.981128692626953 20.819000244140625 1.544908046722412
3.082587957382202 2.22241473197937 0.19117961823940277
2.3302230834960938 0.48002171516418457 0.06354686617851257
10.71734619140625 -2.3171722888946533 0.021051276475191116
2.6240036487579346 -1.9155616760253906 -0.0879102349281311
3.632463216781616 6.365804195404053 0.480385959148407
3.458127737045288 2.512476682662964 0.21728381514549255
2.3333072662353516 0.4895787239074707 0.06492869555950165
10.706202507019043 -2.2737205028533936 0.02101287804543972
2.6350295543670654 -1.9088454246520996 -0.08918126672506332
3.7169511318206787 6.56968879699707 0.5026794672012329
3.1425163745880127 2.300816774368286 0.20207096636295319
2.321676731109619 0.496029257774353 0.06631389260292053
10.744226455688477 -2.238715171813965 0.019154978916049004
2.6257238388061523 -1.887468934059143 -0.09089089184999466
3.1106128692626953 2.293341636657715 0.2038891762495041
2.3247153759002686 0.5055949687957764 0.06686872243881226
10.576007843017578 -2.1632492542266846 0.02072489820420742
2.641064405441284 -1.88315749168396 -0.09230411797761917
3.1460988521575928 2.3373513221740723 0.2108912467956543
2.3276805877685547 0.5151819586753845 0.06867357343435287
10.574057579040527 -2.1225028038024902 0.022588035091757774
2.6316025257110596 -1.8618996143341064 -0.09286049008369446
3.1093857288360596 2.3278110027313232 0.2124003767967224
2.3208653926849365 0.5226039886474609 0.06977524608373642
10.601384162902832 -2.0875961780548096 0.024515744298696518
2.6383824348449707 -1.8522231578826904 -0.09398575872182846
3.0852575302124023 2.3097476959228516 0.21412570774555206
2.315892457962036 0.5214841961860657 0.0729432925581932
2.641904354095459 -1.8560726642608643 -0.09075041860342026
2.3226678371429443 0.5140725374221802 0.0730968490242958
10.597391128540039 -2.1329596042633057 0.04339400306344032
2.643305778503418 -1.8715647459030151 -0.08820502460002899
3.845881462097168 6.850478172302246 0.5438477396965027
3.170477867126465 2.337477922439575 0.21746593713760376
2.3293821811676025 0.5066099762916565 0.07449860125780106
10.633543014526367 -2.180818796157837 0.05304732173681259
2.6365139484405518 -1.8813016414642334 -0.08424801379442215
3.8244500160217285 6.754190444946289 0.5318683981895447
2.3214614391326904 0.4959832727909088 0.07377192378044128
10.723355293273926 -2.2402255535125732 0.05544799938797951
2.633363962173462 -1.8943554162979126 -0.08267951756715775
3.7084391117095947 6.493683338165283 0.5045540928840637
2.3233487606048584 0.4870658814907074 0.07377192378044128
10.695479393005371 -2.27534556388855 0.06107224151492119
2.6224136352539062 -1.9011024236679077 -0.07972557097673416
3.675382614135742 6.386526107788086 0.4920049011707306
3.0665993690490723 2.209261178970337 0.20336900651454926
2.3251309394836426 0.47854968905448914 0.07335760444402695
2.631617307662964 -1.9225281476974487 -0.07794246822595596
3.891817808151245 6.705643177032471 0.5108886957168579
3.066666841506958 2.1922812461853027 0.20020000636577606
2.326869249343872 0.4700244665145874 0.07335760444402695
2.6282947063446045 -1.9356225728988647 -0.07521354407072067
3.8560609817504883 6.58829402923584 0.4976692199707031
3.034013509750366 2.1521785259246826 0.19624991714954376
2.3285887241363525 0.4614953398704529 0.0729432925581932
11.313294410705566 -2.539188861846924 0.07690037786960602
2.6252384185791016 -1.948252558708191 -0.07304642349481583
4.022429466247559 6.815123081207275 0.5089788436889648
3.0575459003448486 2.1536660194396973 0.1953454166650772
2.3253462314605713 0.45200154185295105 0.07320316880941391
11.334019660949707 -2.5833487510681152 0.08318604528903961
2.6228175163269043 -1.959977149963379 -0.07030082494020462
3.953179359436035 6.642058849334717 0.49035975337028503
3.073659896850586 2.148205041885376 0.1945580691099167
2.327012300491333 0.4434804618358612 0.07237627357244492
11.338154792785645 -2.632213830947876 0.08532488346099854
2.6349287033081055 -1.9855613708496094 -0.06853415071964264
4.0521416664123535 6.751901149749756 0.49404287338256836
3.0980374813079834 2.1483843326568604 0.1929623782634735
2.3286094665527344 0.4349461793899536 0.07278972119092941
11.289456367492676 -2.6645538806915283 0.09110524505376816
2.6233508586883545 -1.9926754236221313 -0.06555546820163727
3.984112501144409 6.583737373352051 0.47471359372138977
7.60753059387207 5.232421875 0.46612024307250977
2.330200672149658 0.4264107942581177 0.07237627357244492
11.318479537963867 -2.7152371406555176 0.09548239409923553
2.616065502166748 -2.0023045539855957 -0.06325556337833405
4.073685646057129 6.6816325187683105 0.4758889377117157
7.59282112121582 5.183356285095215 0.4624989330768585
2.3366920948028564 0.41875335574150085 0.071700319647789
7.776646614074707 -1.8971800804138184 0.06706174463033676
2.616652488708496 -2.01800537109375 -0.06171736121177673
4.080024242401123 6.6371750831604 0.4683254361152649
7.573925495147705 5.131789684295654 0.45385104417800903
2.338198661804199 0.41018396615982056 0.07211464643478394
7.459015369415283 -1.8486829996109009 0.0684046596288681
2.620774984359741 -2.037280797958374 -0.05852135270833969
4.183420181274414 6.749795913696289 0.4703962206840515
7.460189342498779 5.014929294586182 0.44278573989868164
2.329847574234009 0.3999224007129669 0.07139842957258224
7.301861763000488 -1.8381659984588623 0.06965334713459015
2.6251213550567627 -2.0561394691467285 -0.05703981593251228
4.173961162567139 6.679733753204346 0.45967918634414673
7.5950469970703125 5.0652666091918945 0.4448935389518738
2.3313097953796387 0.39138245582580566 0.0709858387708664
2.6104679107666016 -2.0586657524108887 -0.05454781651496887
4.198917865753174 6.670350074768066 0.4544679820537567
7.588827610015869 5.021030902862549 0.4370807409286499
2.327784538269043 0.38202375173568726 0.07124747335910797
4.263915061950684 -1.1051057577133179 0.04228430986404419
2.6146769523620605 -2.077573537826538 -0.052462439984083176
4.204461097717285 6.620061874389648 0.44532182812690735
7.586430549621582 4.979563236236572 0.43271365761756897
2.334116220474243 0.37428268790245056 0.0709858387708664
4.138546466827393 -1.0903607606887817 0.04407227039337158
2.6059861183166504 -2.0885355472564697 -0.04954807832837105
7.5629658699035645 4.924594402313232 0.42560678720474243
2.335496664047241 0.3657290041446686 0.07016067206859589
4.037914276123047 -1.0796900987625122 0.04377205669879913
2.5672221183776855 -2.072967052459717 -0.046651095151901245
3.6583948135375977 5.672368049621582 0.37146320939064026
7.568625450134277 4.888871669769287 0.4186098873615265
2.3368093967437744 0.3571647107601166 0.07057325541973114
3.9661736488342285 -1.076842188835144 0.044473614543676376
2.536362409591675 -2.0634520053863525 -0.04394432157278061
3.6657285690307617 5.638261795043945 0.3642207980155945
7.574060440063477 4.853132247924805 0.4132038354873657
2.3381147384643555 0.34859925508499146 0.07016067206859589
3.9621927738189697 -1.0913697481155396 0.045190900564193726
2.528805732727051 -2.072753429412842 -0.04166162759065628
3.708436965942383 5.6584601402282715 0.3604801595211029
7.533022403717041 4.7879815101623535 0.4037604331970215
2.3344428539276123 0.3393101394176483 0.06960061937570572
3.9677810668945312 -1.1085708141326904 0.04673891142010689
2.5285589694976807 -2.088834285736084 -0.03949933499097824
3.6549789905548096 5.532554626464844 0.34866806864738464
7.542189598083496 4.755087375640869 0.4001963138580322
2.3356828689575195 0.3307534158229828 0.06918890029191971
3.9588565826416016 -1.1217361688613892 0.04883665218949318
2.509382963180542 -2.0885138511657715 -0.03646964207291603
3.6485767364501953 5.483240604400635 0.34055766463279724
7.534331798553467 4.711630821228027 0.39419829845428467
2.336867332458496 0.3221888244152069 0.06960061937570572
3.9550986289978027 -1.1348532438278198 0.05027295649051666
2.5062947273254395 -2.100050926208496 -0.03424273431301117
3.621527671813965 5.399574279785156 0.33049479126930237
7.534745693206787 4.673561096191406 0.38866955041885376
2.3380446434020996 0.31362321972846985 0.06918890029191971
3.9601030349731445 -1.1535149812698364 0.051115021109580994
2.513139486312866 -2.1230156421661377 -0.03215543553233147
3.582751989364624 5.299668788909912 0.31846538186073303
7.526525974273682 4.630349636077881 0.3811866343021393
2.3342347145080566 0.3044070303440094 0.06863146275281906
3.955831289291382 -1.1680165529251099 0.05255480483174324
2.516780376434326 -2.1419479846954346 -0.029994815587997437
7.520578384399414 4.592382431030273 0.37857121229171753
2.3403046131134033 0.2964792251586914 0.06836544722318649
3.956286668777466 -1.1839327812194824 0.05478078871965408
2.5085525512695312 -2.151608943939209 -0.02768757753074169
2.6293976306915283 3.8286595344543457 0.223908931016922
7.503344535827637 4.544187068939209 0.3722613453865051
2.3413636684417725 0.28789812326431274 0.0687771737575531
3.951692819595337 -1.1991095542907715 0.056222300976514816
2.493100881576538 -2.154265880584717 -0.02472846396267414
2.62860369682312 3.799018383026123 0.22028625011444092
7.511605739593506 4.511643886566162 0.36572012305259705
2.3374407291412354 0.27872294187545776 0.06863146275281906
3.9472525119781494 -1.2135792970657349 0.05766380578279495
2.488971710205078 -2.166682720184326 -0.022462213411927223
2.6347293853759766 3.7767958641052246 0.21474958956241608
7.495475769042969 4.461111068725586 0.35948503017425537
2.3434231281280518 0.27072882652282715 0.06836544722318649
3.9475409984588623 -1.2295221090316772 0.05845523625612259
2.4847841262817383 -2.1790971755981445 -0.020188970491290092
2.6307709217071533 3.743208646774292 0.2093595415353775
7.484527111053467 4.421048641204834 0.3552153706550598
2.3593125343322754 0.26380541920661926 0.06838563829660416
3.9429686069488525 -1.2439697980880737 0.06134170666337013
2.483903646469116 -2.1952548027038574 -0.017357219010591507
2.6705615520477295 3.770373582839966 0.2073846459388733
7.470664024353027 4.376004695892334 0.3492530882358551
2.3453683853149414 0.2535460889339447 0.06754199415445328
3.9431240558624268 -1.2599281072616577 0.06286085397005081
2.468380928039551 -2.197701930999756 -0.01499756146222353
7.443608283996582 4.323591709136963 0.3427305817604065
2.341322660446167 0.24443042278289795 0.06698804348707199
3.952728509902954 -1.278982400894165 0.06453880667686462
2.50870418548584 -2.250141143798828 -0.01293983869254589
7.485484600067139 4.311301231384277 0.3409087657928467
2.3372182846069336 0.2353454977273941 0.06725580245256424
3.9385015964508057 -1.2903447151184082 0.0651068314909935
2.511575937271118 -2.269382953643799 -0.01063427422195673
2.4734580516815186 3.414438486099243 0.1789228767156601
7.501389980316162 4.283924579620361 0.33638569712638855
2.3430397510528564 0.22726009786128998 0.06739889830350876
3.938469409942627 -1.3063381910324097 0.06663380563259125
2.5661046504974365 -2.335794448852539 -0.008478800766170025
2.4831016063690186 3.401439666748047 0.17503583431243896
7.495455265045166 4.2441792488098145 0.33090290427207947
2.3438687324523926 0.218671977519989 0.06698804348707199
3.938371419906616 -1.3223482370376587 0.06816425919532776
2.568174362182617 -2.3557732105255127 -0.006082469597458839
2.4986016750335693 3.3964619636535645 0.17156393826007843
7.4806132316589355 4.199641227722168 0.32506752014160156
2.3396875858306885 0.20963479578495026 0.06643582880496979
3.933475971221924 -1.3367666006088257 0.06961443275213242
2.570542097091675 -2.375352621078491 -0.003665190888568759
2.511121988296509 3.3874001502990723 0.16788427531719208
7.500517845153809 4.174734592437744 0.31926411390304565
2.340440273284912 0.2010580152273178 0.06643582880496979
3.924046754837036 -1.3488597869873047 0.07025487720966339
2.562652111053467 -2.3838651180267334 -0.0012217304902151227
2.5236072540283203 3.3782899379730225 0.16420447826385498
5.451005935668945 3.007875919342041 0.22829031944274902
2.3461546897888184 0.192889004945755 0.06616632640361786
3.923297643661499 -1.366236925125122 0.07178966701030731
2.556708574295044 -2.397552490234375 0.0024469513446092606
2.534881353378296 3.370015859603882 0.16052456200122833
5.4664812088012695 2.9903314113616943 0.2252110242843628
2.341874361038208 0.18389824032783508 0.06561584770679474
3.927670478820801 -1.38392174243927 0.0734160915017128
2.5406334400177 -2.400038957595825 0.0042699468322098255
2.773622989654541 3.6594154834747314 0.17238497734069824
7.484902381896973 4.058897495269775 0.303288072347641
2.3475167751312256 0.17568664252758026 0.0657554641366005
3.9272565841674805 -1.3999779224395752 0.07495959848165512
2.5354392528533936 -2.4127790927886963 0.006719513330608606
2.8295657634735107 3.704936981201172 0.17094290256500244
7.526183605194092 4.045657157897949 0.3028647005558014
2.3431479930877686 0.16672581434249878 0.06602583825588226
3.922048568725586 -1.4143445491790771 0.07787032425403595
2.5514111518859863 -2.4467153549194336 0.0104885408654809
2.855405807495117 3.710498332977295 0.16759002208709717
7.5411906242370605 4.018167972564697 0.2954079806804657
2.3387906551361084 0.15780246257781982 0.06465800106525421
3.9168384075164795 -1.4287102222442627 0.07787032425403595
2.531635284423828 -2.4456260204315186 0.011672740802168846
2.853764533996582 3.68037748336792 0.16263164579868317
7.61195182800293 4.023519515991211 0.2961510419845581
2.3393309116363525 0.14922787249088287 0.06547624617815018
3.9115238189697266 -1.4430372714996338 0.0807810053229332
2.497561454772949 -2.430469036102295 0.01520613208413124
2.3398733139038086 0.14065347611904144 0.0650671198964119
3.91137433052063 -1.4577361345291138 0.08233492821455002
2.5037667751312256 -2.452725648880005 0.017740322276949883
2.3403732776641846 0.1320764571428299 0.0650671198964119
3.914818525314331 -1.4769445657730103 0.08399268984794617
2.5365800857543945 -2.5049028396606445 0.021155010908842087
5.0566935539245605 2.602135181427002 0.18666787445545197
3.9140219688415527 -1.4930543899536133 0.08555532991886139
2.477745294570923 -2.4648056030273438 0.023179545998573303
2.645085334777832 3.311069965362549 0.13392126560211182
3.9178237915039062 -1.510976791381836 0.0872252807021141
2.4505951404571533 -2.456590414047241 0.025436200201511383
3.9168882369995117 -1.5271308422088623 0.08879662305116653
2.441558361053467 -2.4655392169952393 0.02846425399184227
2.669428825378418 3.2917683124542236 0.12652456760406494
5.398056507110596 2.7031452655792236 0.18866732716560364
3.0761656761169434 0.12839169800281525 0.08438657969236374
3.9205362796783447 -1.5451308488845825 0.09047877043485641
2.4184701442718506 -2.4601941108703613 0.030708661302924156
2.687869071960449 3.289787530899048 0.12311575561761856
5.3587117195129395 2.658921957015991 0.18590524792671204
3.0865895748138428 0.1174958124756813 0.08519966900348663
3.905529737472534 -1.5557783842086792 0.09173158556222916
2.4059298038482666 -2.4654479026794434 0.03306911513209343
2.67976713180542 3.2577624320983887 0.11930178850889206
3.096982002258301 0.10760781913995743 0.0843936949968338
3.9046828746795654 -1.5712559223175049 0.09330987930297852
2.436004400253296 -2.5128836631774902 0.03604041039943695
2.730012893676758 3.294161558151245 0.11801118403673172
3.117342233657837 0.09578800946474075 0.08602684736251831
3.9168176651000977 -1.5944377183914185 0.09596741944551468
2.360029458999634 -2.4541475772857666 0.03803342580795288
2.7421462535858154 3.284226417541504 0.11353081464767456
7.539509296417236 3.638249397277832 0.24407154321670532
3.1277096271514893 0.08463333547115326 0.08466431498527527
3.9062931537628174 -1.6068683862686157 0.09732840210199356
2.3302907943725586 -2.441067695617676 0.03946535661816597
7.435593128204346 3.5545644760131836 0.23884455859661102
3.127969264984131 0.07316844910383224 0.08575648814439774
3.904961585998535 -1.6230802536010742 0.09891973435878754
2.3243091106414795 -2.4535953998565674 0.04306308925151825
7.475785732269287 3.540174961090088 0.23538261651992798
11.663460731506348 0.2300591766834259 0.3156653642654419
3.9081716537475586 -1.641239047050476 0.10063321143388748
2.294729709625244 -2.44022274017334 0.04501941055059433
11.649288177490234 0.18706902861595154 0.31322619318962097
3.902080774307251 -1.6555312871932983 0.10285262763500214
2.2652735710144043 -2.4266598224639893 0.047513220459222794
7.392932891845703 3.4348225593566895 0.2248554229736328
11.639899253845215 0.1442471295595169 0.31295743584632874
3.891359806060791 -1.6678389310836792 0.10420919954776764
2.2597391605377197 -2.4385883808135986 0.04990581423044205
7.4191999435424805 3.414019823074341 0.2209928035736084
11.560273170471191 0.10088497400283813 0.31484293937683105
3.898913621902466 -1.688018560409546 0.1075444370508194
2.264294147491455 -2.4615390300750732 0.053124718368053436
7.4123945236206055 3.381148099899292 0.2161860167980194
11.680497169494629 0.06319819390773773 0.31810978055000305
3.8978404998779297 -1.7029246091842651 0.10915575921535492
2.245976448059082 -2.4579343795776367 0.055210959166288376
7.4111409187316895 3.347815752029419 0.2129494845867157
11.665657043457031 0.0203604344278574 0.31770142912864685
