# .PCD v0.7 - Point Cloud Data file format
VERSION 0.7
FIELDS x y z
SIZE 4 4 4
TYPE F F F
COUNT 1 1 1
WIDTH 840
HEIGHT 1
VIEWPOINT 0 0 0 1 0 0 0
POINTS 840
DATA ascii
3.0974462032318115 0.8050926327705383 0.2485024333000183
11.447608947753906 -1.9588321447372437 1.1919950246810913
3.2689855098724365 -2.1826162338256836 0.43811559677124023
1.7982964515686035 -2.854541301727295 0.33139488101005554
3.6392276287078857 2.9207890033721924 0.18415777385234833
3.187246084213257 0.8165671229362488 0.25432130694389343
11.421306610107422 -1.9953913688659668 1.1879295110702515
3.2320427894592285 -2.175119638442993 0.43491843342781067
1.785062313079834 -2.856696844100952 0.33325785398483276
3.630444049835205 2.891925811767578 0.18074166774749756
11.41391658782959 -2.0372390747070312 1.1879295110702515
3.207916736602783 -2.1751906871795654 0.43337592482566833
1.7666244506835938 -2.85038423538208 0.3335369825363159
3.625439405441284 2.8662831783294678 0.1767369955778122
11.430634498596191 -2.083481788635254 1.1925054788589478
3.175121784210205 -2.1699836254119873 0.4320559799671173
1.7430161237716675 -2.835449695587158 0.3333864212036133
3.3992574214935303 2.6691925525665283 0.16150139272212982
2.4843883514404297 0.6074663996696472 0.1949988454580307
11.41823673248291 -2.1244914531707764 1.1899681091308594
3.138441801071167 -2.1618337631225586 0.428813636302948
1.729900598526001 -2.837371826171875 0.33520811796188354
3.6145150661468506 2.815850019454956 0.16881109774112701
2.5255093574523926 0.607719898223877 0.1962263286113739
11.395509719848633 -2.1635050773620605 1.1904635429382324
3.1180686950683594 -2.164693832397461 0.4291239380836487
1.7091026306152344 -2.8265154361724854 0.334930419921875
3.5893263816833496 2.7751474380493164 0.16398686170578003
2.518049478530884 0.5961698889732361 0.19502143561840057
11.416802406311035 -2.2109310626983643 1.1935265064239502
3.085505723953247 -2.1588897705078125 0.4277257025241852
1.6980862617492676 -2.8328053951263428 0.33781275153160095
2.525139808654785 0.588083028793335 0.1944921761751175
11.39985179901123 -2.2468950748443604 1.1904776096343994
3.0531511306762695 -2.152963399887085 0.42499205470085144
1.6825182437896729 -2.8303067684173584 0.33851930499076843
3.1755387783050537 2.4199881553649902 0.14012031257152557
2.527311325073242 0.5788315534591675 0.19403965771198273
11.377106666564941 -2.2836966514587402 1.1909741163253784
3.0332860946655273 -2.1548473834991455 0.42524483799934387
1.6644055843353271 -2.823345899581909 0.3398454487323761
3.1290981769561768 2.3656599521636963 0.1342419981956482
2.534412145614624 0.5706896781921387 0.19259920716285706
11.393227577209473 -2.3304059505462646 1.1914968490600586
3.009150743484497 -2.1543405055999756 0.4236197769641876
1.6464271545410156 -2.8163936138153076 0.340006560087204
3.117854118347168 2.339249610900879 0.1299854815006256
2.5365848541259766 0.5614184737205505 0.19123893976211548
11.37507438659668 -2.370161533355713 1.1884496212005615
2.9769444465637207 -2.147830009460449 0.4214894771575928
1.6310161352157593 -2.813650369644165 0.3406728506088257
3.110445737838745 2.315922260284424 0.1266116201877594
2.5435304641723633 0.5531843900680542 0.1911516785621643
11.361242294311523 -2.410762071609497 1.1899681091308594
2.9489047527313232 -2.144077777862549 0.41927406191825867
1.62057363986969 -2.8194024562835693 0.3429432511329651
3.1233880519866943 2.3069701194763184 0.12474166601896286
2.545670747756958 0.5438858866691589 0.18933440744876862
11.381704330444336 -2.4587323665618896 1.1909934282302856
2.920815944671631 -2.140063524246216 0.4183139503002167
1.5609002113342285 -2.7387702465057373 0.3341062664985657
2.562321424484253 0.5376309156417847 0.1899656057357788
11.352980613708496 -2.496114730834961 1.190987229347229
2.833343982696533 -2.091212272644043 0.40745216608047485
1.4235202074050903 -2.5191400051116943 0.30922842025756836
2.5643718242645264 0.5282559394836426 0.1885947287082672
11.33469295501709 -2.533604145050049 1.1879409551620483
2.805619716644287 -2.0866775512695312 0.40579932928085327
1.42875075340271 -2.5501739978790283 0.31445714831352234
3.0426549911499023 2.197662830352783 0.1120518296957016
2.571275472640991 0.5198612809181213 0.1875804215669632
11.364336013793945 -2.5839996337890625 1.1899769306182861
2.793921947479248 -2.093925714492798 0.40583229064941406
1.419340968132019 -2.555297374725342 0.31547752022743225
3.0796196460723877 2.2064175605773926 0.10846786946058273
2.587820529937744 0.5142799615859985 0.18634790182113647
11.331161499023438 -2.620171308517456 1.1813480854034424
2.794098377227783 -2.110095262527466 0.40759792923927307
1.4026926755905151 -2.547274351119995 0.31539058685302734
2.5849194526672363 0.503862202167511 0.18415707349777222
11.316839218139648 -2.660592794418335 1.1788138151168823
2.762632131576538 -2.1022768020629883 0.4041290283203125
1.3889483213424683 -2.5432851314544678 0.31582966446876526
3.0593624114990234 2.1749794483184814 0.09894958138465881
2.580453395843506 0.5025241374969482 0.17876145243644714
11.338591575622559 -2.6657068729400635 1.1564390659332275
2.7556490898132324 -2.096203565597534 0.396930456161499
1.3914886713027954 -2.5479366779327393 0.31333139538764954
3.0757625102996826 2.2036540508270264 0.09907974302768707
2.5737619400024414 0.511019229888916 0.17750629782676697
11.339570045471191 -2.62211537361145 1.1452947854995728
2.78352427482605 -2.101346969604492 0.3955172300338745
1.4010015726089478 -2.5431528091430664 0.30978432297706604
3.0676369667053223 2.2148921489715576 0.10040049999952316
2.5768520832061768 0.5214569568634033 0.17646722495555878
11.344771385192871 -2.5816335678100586 1.1346522569656372
2.78352952003479 -2.085378646850586 0.39135536551475525
1.4177156686782837 -2.5513222217559814 0.3083193302154541
2.570037364959717 0.5298906564712524 0.17613236606121063
11.335309028625488 -2.5358190536499023 1.12662935256958
2.8152990341186523 -2.093113660812378 0.3922607898712158
1.4276847839355469 -2.546186685562134 0.3047531545162201
3.148028612136841 2.30823016166687 0.10494622588157654
2.5485787391662598 0.5352118015289307 0.1743384450674057
11.354822158813477 -2.4965195655822754 1.1215075254440308
2.8908348083496094 -2.1336445808410645 0.39857086539268494
3.148369073867798 2.3245723247528076 0.10658106952905655
2.5467898845672607 0.5436602830886841 0.1743384450674057
11.359224319458008 -2.45387601852417 1.1189991235733032
2.9229726791381836 -2.140859842300415 0.39871686697006226
1.6042616367340088 -2.812570333480835 0.33289435505867004
3.1714658737182617 2.3604953289031982 0.10905005782842636
2.5399348735809326 0.5519381165504456 0.1735508292913437
11.354105949401855 -2.409247636795044 1.1114842891693115
2.963132381439209 -2.1536319255828857 0.4011744260787964
1.6271343231201172 -2.828530788421631 0.3320342004299164
3.194749593734741 2.396071195602417 0.11154694855213165
2.5378949642181396 0.5612437725067139 0.1735508292913437
11.377633094787598 -2.3727669715881348 1.1068288087844849
2.9833834171295166 -2.151683807373047 0.3995975852012634
1.6401604413986206 -2.827150344848633 0.3291177749633789
2.5258584022521973 0.5692267417907715 0.17333650588989258
11.381942749023438 -2.330167293548584 1.1002717018127441
3.0286717414855957 -2.1659183502197266 0.40120843052864075
1.654154658317566 -2.8250837326049805 0.32676196098327637
3.6303317546844482 2.764570474624634 0.13064797222614288
2.538546085357666 0.5809383392333984 0.1743384450674057
11.351365089416504 -2.2805910110473633 1.0965005159378052
3.048168897628784 -2.1646199226379395 0.40085795521736145
1.67121422290802 -2.832634687423706 0.3259557783603668
3.6359615325927734 2.789971351623535 0.13441996276378632
2.5219547748565674 0.5864132642745972 0.17288459837436676
11.394396781921387 -2.2458198070526123 1.0937196016311646
3.0684456825256348 -2.1621451377868652 0.40049171447753906
1.6847970485687256 -2.8307647705078125 0.32299938797950745
3.6341092586517334 2.8087587356567383 0.13471312820911407
2.5149333477020264 0.5945050716400146 0.1725514829158783
11.388449668884277 -2.2013163566589355 1.0862399339675903
3.105103015899658 -2.170987367630005 0.4015599191188812
1.7080808877944946 -2.8460984230041504 0.32312172651290894
3.631601572036743 2.8281428813934326 0.13821978867053986
2.5175588130950928 0.6048771739006042 0.17333650588989258
11.386844635009766 -2.1577422618865967 1.0832847356796265
3.133754253387451 -2.1739628314971924 0.40086662769317627
1.723828673362732 -2.848623037338257 0.3206040561199188
3.479628562927246 2.730339288711548 0.13436095416545868
2.5007853507995605 0.6105507016181946 0.17233455181121826
11.409547805786133 -2.120814561843872 1.0786045789718628
3.146348237991333 -2.164851665496826 0.3993896543979645
1.737988829612732 -2.846165657043457 0.3181731700897217
3.626377582550049 2.8670246601104736 0.1420474648475647
2.503314733505249 0.6208989024162292 0.17356884479522705
11.412345886230469 -2.078090190887451 1.0781419277191162
3.1133601665496826 -2.1253833770751953 0.3922155201435089
1.7511636018753052 -2.8442506790161133 0.315733402967453
3.619676113128662 2.883348226547241 0.14543181657791138
2.5107264518737793 0.6325146555900574 0.1737883985042572
11.395933151245117 -2.0319769382476807 1.0697674751281738
1.776445746421814 -2.863997220993042 0.31620386242866516
3.6475069522857666 2.928480863571167 0.1486351490020752
11.428010940551758 -1.9945071935653687 1.0700433254241943
1.7923558950424194 -2.8661422729492188 0.3141881227493286
3.676558256149292 2.971909761428833 0.15352360904216766
11.425978660583496 -1.9510258436203003 1.0630557537078857
1.808305025100708 -2.8682079315185547 0.3121547996997833
3.6423919200897217 2.966430425643921 0.1525498777627945
3.067983865737915 0.8088780045509338 0.2135198712348938
11.399040222167969 -1.9034550189971924 1.0558252334594727
2.899562358856201 -1.9191784858703613 0.3525848686695099
1.8296347856521606 -2.878599166870117 0.3110119104385376
3.6390960216522217 2.985997438430786 0.15780407190322876
3.0263020992279053 0.8097631335258484 0.21302121877670288
11.44965934753418 -1.8708499670028687 1.0619441270828247
2.8360378742218018 -1.8622201681137085 0.34223341941833496
1.8376322984695435 -2.867908239364624 0.30758553743362427
2.902959108352661 0.7881724834442139 0.20454108715057373
11.447152137756348 -1.8273898363113403 1.054963231086731
2.7763447761535645 -1.8084957599639893 0.33189138770103455
1.8541522026062012 -2.8693761825561523 0.30609995126724243
2.5768322944641113 2.1454122066497803 0.11474698036909103
2.828148365020752 0.7779398560523987 0.19996494054794312
11.439013481140137 -1.7831207513809204 1.0536037683486938
2.7705636024475098 -1.7903008460998535 0.3286692202091217
1.8729569911956787 -2.8753037452697754 0.30444416403770447
2.5842347145080566 2.1676619052886963 0.11660841107368469
2.8204731941223145 0.7869596481323242 0.19962488114833832
11.465707778930664 -1.7442611455917358 1.0493439435958862
2.7772510051727295 -1.7802268266677856 0.3269420266151428
1.883628010749817 -2.868640422821045 0.3014494776725769
2.5754494667053223 2.177964925765991 0.11896316707134247
2.8220911026000977 0.7996353507041931 0.19996494054794312
11.457427978515625 -1.7000597715377808 1.0459707975387573
2.7758119106292725 -1.7643033266067505 0.32423365116119385
1.900774359703064 -2.869579792022705 0.29932087659835815
2.5795955657958984 2.1961841583251953 0.1206744834780693
2.8190739154815674 0.809954047203064 0.20098881423473358
11.45372486114502 -1.6566290855407715 1.0450713634490967
2.752378225326538 -1.736621379852295 0.31852805614471436
1.9131600856781006 -2.8675780296325684 0.2973475456237793
2.590427875518799 2.221834182739258 0.12394699454307556
2.820875406265259 0.8216760754585266 0.20133064687252045
11.47970199584961 -1.6194969415664673 1.0407999753952026
2.7636876106262207 -1.728285312652588 0.3173084259033203
1.9303628206253052 -2.8683550357818604 0.29518988728523254
2.6801111698150635 2.3166770935058594 0.13052023947238922
2.8228862285614014 0.832426905632019 0.20218612253665924
11.47569465637207 -1.576055645942688 1.0399059057235718
2.7399463653564453 -1.700825572013855 0.31222885847091675
1.9511606693267822 -2.8786044120788574 0.29446351528167725
2.8340859413146973 0.8470326066017151 0.20424671471118927
11.466763496398926 -1.5320299863815308 1.0365455150604248
2.8098721504211426 -1.729997158050537 0.3177286386489868
1.9646531343460083 -2.8757588863372803 0.29184621572494507
3.6819605827331543 3.227856159210205 0.18468189239501953
2.8357362747192383 0.858860194683075 0.20459114015102386
11.50229263305664 -1.493886947631836 1.0351741313934326
2.761159658432007 -1.6860805749893188 0.3092401325702667
1.9724692106246948 -2.8646020889282227 0.28900063037872314
3.6999671459198 3.26770281791687 0.18963578343391418
2.8515751361846924 0.8750803470611572 0.20701007544994354
11.488105773925781 -1.449248194694519 1.0313752889633179
2.784489631652832 -1.6863467693328857 0.30943870544433594
1.991650104522705 -2.869882106781006 0.2865847945213318
2.635256290435791 2.3446295261383057 0.13797152042388916
2.8578054904937744 0.8884660601615906 0.20874708890914917
11.488396644592285 -1.4065272808074951 1.0309317111968994
2.812079906463623 -1.689000129699707 0.31065940856933594
2.007953643798828 -2.8708529472351074 0.28556808829307556
2.6299359798431396 2.3580498695373535 0.13878345489501953
2.8592875003814697 0.9004327058792114 0.20909500122070312
11.508845329284668 -1.3662354946136475 1.0261942148208618
2.767160415649414 -1.6482497453689575 0.3021918833255768
2.0248777866363525 -2.8715107440948486 0.28270119428634644
2.9034171104431152 0.9260402917861938 0.21363791823387146
11.52344036102295 -1.3271934986114502 1.027076244354248
2.768942356109619 -1.6355915069580078 0.30116355419158936
2.0556843280792236 -2.8926291465759277 0.28365013003349304
2.4831056594848633 2.2594523429870605 0.13660067319869995
11.503656387329102 -1.2822102308273315 1.0228511095046997
2.797149896621704 -1.6371431350708008 0.30123192071914673
2.0645477771759033 -2.880542039871216 0.27954062819480896
2.479212522506714 2.2709836959838867 0.1391511857509613
3.0434374809265137 0.9953367114067078 0.2255949079990387
11.528440475463867 -1.2422112226486206 1.0205641984939575
2.802699327468872 -1.6279371976852417 0.2995348870754242
2.085871696472168 -2.890005350112915 0.27862513065338135
2.4818503856658936 2.2901856899261475 0.1409502923488617
3.044428586959839 1.0080275535583496 0.22706575691699982
11.538046836853027 -1.2004828453063965 1.0189779996871948
2.787490129470825 -1.6048206090927124 0.29555022716522217
2.1093332767486572 -2.8979265689849854 0.27705609798431396
2.494915008544922 2.3200416564941406 0.14457985758781433
3.050095796585083 1.0223239660263062 0.2288949340581894
11.517590522766113 -1.155699372291565 1.0167903900146484
2.802091121673584 -1.5995811223983765 0.2953389883041382
2.1259517669677734 -2.898371458053589 0.27531740069389343
2.5009219646453857 2.3427789211273193 0.1472221314907074
3.04632830619812 1.0334962606430054 0.2288949340581894
11.561410903930664 -1.1173104047775269 1.020290493965149
2.7951133251190186 -1.582043170928955 0.29172950983047485
2.142629384994507 -2.898770570755005 0.27293553948402405
2.4676434993743896 2.3270163536071777 0.14749585092067719
3.0569615364074707 1.0484204292297363 0.23108768463134766
11.5503511428833 -1.0775938034057617 1.0169532299041748
2.7874515056610107 -1.5655244588851929 0.2886987328529358
2.1612744331359863 -2.9038007259368896 0.2715409994125366
2.448176860809326 2.3256704807281494 0.14861223101615906
3.066784381866455 1.065567135810852 0.23329082131385803
11.534912109375 -1.031492829322815 1.0111641883850098
2.797609329223633 -1.5577690601348877 0.2880306839942932
2.17799973487854 -2.9039885997772217 0.26975488662719727
3.08186674118042 1.082878828048706 0.2347242534160614
11.573354721069336 -0.9921864867210388 1.0142085552215576
2.7647249698638916 -1.5249512195587158 0.2823459804058075
2.195796251296997 -2.903362989425659 0.2673194110393524
3.0871975421905518 1.0974805355072021 0.23658469319343567
11.566985130310059 -0.9489468932151794 1.0133388042449951
2.835385799407959 -1.5516852140426636 0.28789785504341125
2.2150959968566895 -2.907729148864746 0.26586613059043884
3.707990884780884 3.6020877361297607 0.23746025562286377
3.134774923324585 1.1273525953292847 0.24054577946662903
11.565945625305176 -0.9061975479125977 1.0068295001983643
2.8062503337860107 -1.5224014520645142 0.28156307339668274
2.2410340309143066 -2.9195175170898438 0.2651103138923645
3.7232017517089844 3.6434834003448486 0.2429325431585312
7.348339557647705 2.6731245517730713 0.5673639178276062
11.58409309387207 -0.8649128675460815 1.0081264972686768
2.785491704940796 -1.4979519844055176 0.2789275348186493
2.2670884132385254 -2.931154727935791 0.264319509267807
3.7074501514434814 3.6522154808044434 0.24542461335659027
7.311164855957031 2.6870877742767334 0.5679119229316711
11.586896896362305 -0.8264938592910767 1.0081264972686768
2.9185588359832764 -1.5557478666305542 0.28993430733680725
2.2810235023498535 -2.926940679550171 0.2614370882511139
7.3244524002075195 2.7224843502044678 0.572457492351532
11.569968223571777 -0.7826753258705139 1.0063972473144531
3.0301215648651123 -1.6009827852249146 0.2980213761329651
2.3010895252227783 -2.9304723739624023 0.2598901391029358
7.328239917755127 2.754504442214966 0.576286256313324
11.597790718078613 -0.7418651580810547 1.0065304040908813
2.3119266033172607 -2.9221603870391846 0.2572888433933258
4.388148784637451 4.418891429901123 0.3045783042907715
7.326350212097168 2.787409782409668 0.5783884525299072
11.585986137390137 -0.6964519023895264 1.0011845827102661
3.6038646697998047 -1.8696624040603638 0.349491149187088
2.3331098556518555 -2.924729824066162 0.25505733489990234
7.32985782623291 2.8195416927337646 0.5822336673736572
11.593084335327148 -0.6542432904243469 1.0056675672531128
2.3533005714416504 -2.927961826324463 0.25345513224601746
7.297038555145264 2.834731101989746 0.5831179618835449
11.620627403259277 -0.6130788922309875 1.0037627220153809
3.856703042984009 -1.9667844772338867 0.3696253299713135
2.3698954582214355 -2.927621603012085 0.2514987885951996
3.0996105670928955 3.19185471534729 0.22694462537765503
7.281768798828125 2.859560012817383 0.585477352142334
11.617622375488281 -0.5742942094802856 1.0033330917358398
3.8462719917297363 -1.9437344074249268 0.36566755175590515
2.4059462547302246 -2.949981451034546 0.25150614976882935
3.1201272010803223 3.2343735694885254 0.23159010708332062
7.2896809577941895 2.893549919128418 0.5883388519287109
11.599742889404297 -0.5307987332344055 1.0016143321990967
3.8534841537475586 -1.9296810626983643 0.36416321992874146
2.4073779582977295 -2.9297473430633545 0.24720825254917145
3.0828399658203125 3.2215018272399902 0.23290179669857025
7.296322822570801 2.930144786834717 0.5925795435905457
11.636621475219727 -0.4856843948364258 1.0046221017837524
3.8524417877197266 -1.9098551273345947 0.3610698878765106
2.4192287921905518 -2.920192003250122 0.24456091225147247
3.1270697116851807 3.289489984512329 0.24024339020252228
7.281752586364746 2.9523725509643555 0.594946563243866
11.638245582580566 -0.4450620710849762 1.0046221017837524
3.8550562858581543 -1.8935810327529907 0.35915228724479675
2.4460113048553467 -2.9305899143218994 0.24350500106811523
3.07035756111145 3.2536303997039795 0.23914997279644012
7.307500839233398 2.9940450191497803 0.6021016240119934
11.630049705505371 -0.40613025426864624 0.999700665473938
3.861539125442505 -1.8808962106704712 0.3561536967754364
2.4461941719055176 -2.911130905151367 0.2398955374956131
3.1123292446136475 3.3235814571380615 0.24659939110279083
7.300889492034912 3.022634506225586 0.6052400469779968
11.646397590637207 -0.3639681041240692 1.0009845495224
3.8684070110321045 -1.8667302131652832 0.3561536967754364
2.476301431655884 -2.9251251220703125 0.23910890519618988
3.0365939140319824 3.2643349170684814 0.24379630386829376
7.300025939941406 3.050673246383667 0.6060037612915039
11.642672538757324 -0.32114213705062866 1.0005565881729126
3.8619585037231445 -1.8461984395980835 0.35192587971687317
2.4871134757995605 -2.9161558151245117 0.2364332228899002
3.031266689300537 3.2826526165008545 0.24746175110340118
7.379265785217285 3.1186418533325195 0.6178356409072876
11.64377212524414 -0.27846741676330566 1.0005565881729126
3.8688101768493652 -1.8320837020874023 0.3504317104816437
2.4849085807800293 -2.8920342922210693 0.2318744659423828
3.0157244205474854 3.2899324893951416 0.2503010630607605
7.376757621765137 3.1494977474212646 0.6214044094085693
11.669967651367188 -0.23630033433437347 0.9986220598220825
3.871152639389038 -1.8158527612686157 0.3477849066257477
2.4895660877227783 -2.875047206878662 0.22861242294311523
2.9800097942352295 3.2749881744384766 0.25143250823020935
7.384385108947754 3.1817467212677 0.625756025314331
11.675386428833008 -0.19360297918319702 1.0031243562698364
3.8688526153564453 -1.7975033521652222 0.345485121011734
3.008049488067627 3.33024263381958 0.25718384981155396
7.371252059936523 3.2112324237823486 0.6299660205841064
11.656145095825195 -0.1464831531047821 1.0014125108718872
3.8803632259368896 -1.7847676277160645 0.3443978428840637
2.2085201740264893 -2.5112526416778564 0.19634167850017548
2.9684367179870605 3.311863660812378 0.25877645611763
7.373019218444824 3.244205951690674 0.6325435638427734
11.691804885864258 -0.10611437261104584 1.0003268718719482
3.8733813762664795 -1.7643852233886719 0.3417065441608429
2.2003815174102783 -2.48533034324646 0.19255907833576202
2.953997850418091 3.3178255558013916 0.2615874111652374
7.439465522766113 3.3029327392578125 0.6420391798019409
11.697074890136719 -0.06737106293439865 1.0007530450820923
3.8381335735321045 -1.733790397644043 0.3366353213787079
2.2186639308929443 -2.4892990589141846 0.19109989702701569
2.9428577423095703 3.327465534210205 0.2646886706352234
7.44074821472168 3.336203098297119 0.6460651159286499
11.667351722717285 -0.02443608082830906 0.9981958270072937
3.8806650638580322 -1.7367182970046997 0.33833837509155273
2.2678604125976562 -2.5257976055145264 0.19275546073913574
2.9305503368377686 3.3381247520446777 0.2670145034790039
7.474850654602051 3.3813087940216064 0.6528779864311218
11.712029457092285 0.014308950863778591 1.0040758848190308
3.877998113632202 -1.7184922695159912 0.3360644578933716
2.2704949378967285 -2.5101630687713623 0.189825639128685
2.891942024230957 3.318601608276367 0.26768752932548523
7.4439616203308105 3.400257110595703 0.6555765271186829
11.706917762756348 0.057211246341466904 1.0036487579345703
3.875248908996582 -1.7003087997436523 0.3337974548339844
2.29702091217041 -2.5199716091156006 0.18884511291980743
2.8938629627227783 3.3431241512298584 0.27198848128318787
11.706628799438477 0.10011886060237885 1.0036487579345703
3.8952770233154297 -1.6920980215072632 0.33349448442459106
2.316460371017456 -2.5226640701293945 0.18728362023830414
2.877659797668457 3.3503165245056152 0.27399399876594543
11.726457595825195 0.14327284693717957 1.0012636184692383
3.8787689208984375 -1.6680546998977661 0.3285898268222809
2.302046537399292 -2.4885966777801514 0.18300588428974152
2.8134355545043945 3.2999367713928223 0.27206796407699585
11.725503921508789 0.18624593317508698 1.0053571462631226
3.884909152984619 -1.6538496017456055 0.32785290479660034
2.338470220565796 -2.50945782661438 0.18276743590831757
2.7947208881378174 3.3024260997772217 0.27521729469299316
11.719937324523926 0.22912685573101044 1.0028841495513916
3.88645601272583 -1.6377079486846924 0.32599368691444397
2.3579909801483154 -2.511883497238159 0.1811603605747223
2.7632176876068115 3.2895753383636475 0.2763119637966156
11.743968963623047 0.2706094980239868 1.005015254020691
3.9017391204833984 -1.6273341178894043 0.32528868317604065
2.3604061603546143 -2.4960594177246094 0.1782369464635849
2.7126762866973877 3.2535452842712402 0.27541831135749817
9.605365753173828 4.6434149742126465 0.8790138363838196
11.747879028320312 0.31378450989723206 1.005441427230835
3.8939578533172607 -1.6073594093322754 0.3226673901081085
2.4040231704711914 -2.5235910415649414 0.1796109974384308
2.694279193878174 3.255666732788086 0.27698224782943726
11.741369247436523 0.3607824444770813 1.0070655345916748
3.900482416152954 -1.5917574167251587 0.32119691371917725
2.393510103225708 -2.492443799972534 0.17444846034049988
2.6568403244018555 3.234490156173706 0.278018981218338
9.579178810119629 4.7176947593688965 0.8910173177719116
11.764649391174316 0.40055179595947266 1.0133099555969238
3.8965468406677246 -1.5750981569290161 0.3197031319141388
2.4057095050811768 -2.4877073764801025 0.17349256575107574
2.6617448329925537 3.2624590396881104 0.28261542320251465
11.763102531433105 0.4436686933040619 1.0133099555969238
3.9023971557617188 -1.560847520828247 0.31823602318763733
2.4044408798217773 -2.4682276248931885 0.17033593356609344
7.670326232910156 3.844362735748291 0.7204661965370178
11.741663932800293 0.4859629273414612 1.0095436573028564
3.912933588027954 -1.548449993133545 0.3156757652759552
2.469541549682617 -2.516535520553589 0.1712089478969574
7.707836627960205 3.9019548892974854 0.730010449886322
11.784594535827637 0.5310132503509521 1.0133953094482422
3.9093992710113525 -1.5305027961730957 0.3134622573852539
2.478811025619507 -2.507530927658081 0.16936279833316803
7.734564781188965 3.9477615356445312 0.7368307113647461
11.782491683959961 0.5721373558044434 1.0154541730880737
3.914982557296753 -1.5161638259887695 0.3134622573852539
2.488068103790283 -2.498512029647827 0.16690118610858917
7.684267520904541 3.957657814025879 0.7379747033119202
11.770365715026855 0.6147987842559814 1.0145964622497559
3.9252712726593018 -1.5036271810531616 0.3123672604560852
2.5220513343811035 -2.5141406059265137 0.1660699099302292
7.709150314331055 4.00629186630249 0.746351957321167
11.792901039123535 0.6593255400657654 1.0167405605316162
3.9261951446533203 -1.4875023365020752 0.31053122878074646
2.5637259483337402 -2.536132574081421 0.16564860939979553
7.711829662322998 4.043651580810547 0.7511032819747925
11.790228843688965 0.7025337815284729 1.0188020467758179
3.9176623821258545 -1.467872142791748 0.30869460105895996
2.5552265644073486 -2.5092613697052 0.1632513701915741
7.736236572265625 4.092669486999512 0.7595532536506653
11.787574768066406 0.7457423806190491 1.0188020467758179
3.923117160797119 -1.4535408020019531 0.3072341978549957
2.5358734130859375 -2.472064256668091 0.15895751118659973
11.809436798095703 0.7905928492546082 1.023016333580017
3.919154405593872 -1.435758113861084 0.30504491925239563
2.530637741088867 -2.448935031890869 0.15560223162174225
2.7099833488464355 3.5522141456604004 0.3288869261741638
11.816218376159668 0.8345605134963989 1.0259448289871216
3.9242422580718994 -1.422105312347412 0.303587943315506
2.5468597412109375 -2.4466207027435303 0.15419451892375946
2.6985361576080322 3.566810131072998 0.3331572115421295
5.453946113586426 2.9612510204315186 0.5462298393249512
11.803146362304688 0.8771252632141113 1.025081992149353
3.924832582473755 -1.4060662984848022 0.3017699420452118
2.548656940460205 -2.430448532104492 0.15129971504211426
2.6655874252319336 3.547649383544922 0.33365529775619507
7.5220770835876465 4.1199235916137695 0.7593925595283508
11.839564323425293 0.9213986992835999 1.0306061506271362
3.920607805252075 -1.3883600234985352 0.30032214522361755
2.557624101638794 -2.4211628437042236 0.1488410383462906
2.6733241081237793 3.585233211517334 0.33862125873565674
7.480538368225098 4.13288688659668 0.7597298622131348
11.831500053405762 0.9644110798835754 1.0260303020477295
3.9304752349853516 -1.3756628036499023 0.29922860860824585
2.556053638458252 -2.4011337757110596 0.14575938880443573
2.677781343460083 3.618813991546631 0.3448149859905243
7.469342231750488 4.162507057189941 0.7646499872207642
11.827348709106445 1.0077234506607056 1.0322455167770386
3.9261629581451416 -1.3580212593078613 0.2970617711544037
2.561220407485962 -2.3883767127990723 0.14432932436466217
7.449344635009766 4.187218189239502 0.7686790823936462
11.853346824645996 1.0537124872207642 1.0348445177078247
3.9311635494232178 -1.3436388969421387 0.29633668065071106
2.5590317249298096 -2.3688597679138184 0.14127720892429352
4.408468246459961 6.04551887512207 0.5849179625511169
7.533230304718018 4.270779609680176 0.7835161685943604
11.8541841506958 1.0975927114486694 1.037355661392212
3.9313361644744873 -1.3276255130767822 0.29598093032836914
2.5640900135040283 -2.3561503887176514 0.1386437714099884
4.397789001464844 6.077539920806885 0.5904046893119812
7.491233825683594 4.283327579498291 0.7853313088417053
11.835386276245117 1.1396180391311646 1.0339782238006592
3.936370611190796 -1.3132725954055786 0.2930840253829956
2.5653793811798096 -2.3400511741638184 0.1364278644323349
4.385744094848633 6.110157012939453 0.5985376238822937
7.463687896728516 4.300482273101807 0.788482129573822
11.876152992248535 1.1833041906356812 1.0378767251968384
3.9364688396453857 -1.2972911596298218 0.29200834035873413
2.559194326400757 -2.317282199859619 0.13323244452476501
4.334162712097168 6.085253715515137 0.5997869968414307
7.507907867431641 4.362692356109619 0.7978941202163696
11.861645698547363 1.225781798362732 1.03909170627594
3.9412944316864014 -1.282886028289795 0.2905615568161011
2.571824312210083 -2.3108088970184326 0.1322183907032013
4.287755966186523 6.0625433921813965 0.6026661992073059
7.517279148101807 4.405072212219238 0.8052012920379639
11.8571138381958 1.2671599388122559 1.041172981262207
3.9411733150482178 -1.266890048980713 0.2909344732761383
2.5728871822357178 -2.294776439666748 0.1294294148683548
4.26812744140625 6.081952095031738 0.6082580089569092
7.513577938079834 4.439978122711182 0.8111513257026672
11.881091117858887 1.3179818391799927 1.050041675567627
3.9411325454711914 -1.2509580850601196 0.28914058208465576
2.570124626159668 -2.275453805923462 0.12647025287151337
4.242654800415039 6.093027114868164 0.6143295168876648
7.53188419342041 4.48634147644043 0.8194435238838196
11.886076927185059 1.3626538515090942 1.0509166717529297
3.950546979904175 -1.2380263805389404 0.2880442440509796
2.5484704971313477 -2.2396740913391113 0.12322109937667847
2.642448663711548 3.8247318267822266 0.3887344300746918
7.5320916175842285 4.5239481925964355 0.8259055018424988
11.871417999267578 1.4008731842041016 1.0521280765533447
3.955106019973755 -1.2235534191131592 0.28732168674468994
7.536376953125 4.564192295074463 0.8328585028648376
11.92040729522705 1.4509724378585815 1.0590461492538452
3.9548890590667725 -1.2076215744018555 0.2855320870876312
2.5120303630828857 -2.1752219200134277 0.11720074713230133
7.536218166351318 4.601932525634766 0.8393643498420715
11.914301872253418 1.4987889528274536 1.0611419677734375
3.959336042404175 -1.1931322813034058 0.2848103642463684
2.5090553760528564 -2.155843496322632 0.11436261981725693
4.138911724090576 6.131570816040039 0.6355118155479431
7.544355392456055 4.644949436187744 0.8468422293663025
11.899473190307617 1.5349135398864746 1.062355875968933
3.9637300968170166 -1.1786266565322876 0.2840886414051056
2.5245895385742188 -2.1531567573547363 0.11297079920768738
4.102934837341309 6.131206035614014 0.638950526714325
7.56483268737793 4.695880889892578 0.8573402166366577
11.927590370178223 1.5872429609298706 1.0675429105758667
3.958544969558716 -1.1613104343414307 0.2819632291793823
2.5630064010620117 -2.1697452068328857 0.11315970122814178
4.063037872314453 6.115363597869873 0.6410563588142395
7.572500705718994 4.739177703857422 0.8648931384086609
11.921692848205566 1.6309490203857422 1.0675429105758667
3.9675192832946777 -1.1481667757034302 0.2830250859260559
2.5901308059692383 -2.1764609813690186 0.11163980513811111
4.040225028991699 6.129650592803955 0.6487446427345276
4.861017227172852 3.0670735836029053 0.5605317950248718
11.752907752990723 1.6475802659988403 1.0591756105422974
3.9669039249420166 -1.1322482824325562 0.28268325328826904
2.5981204509735107 -2.166978120803833 0.1104588583111763
4.025596618652344 6.156445503234863 0.6564843654632568
11.608946800231934 1.670806646347046 1.0446833372116089
3.9711694717407227 -1.1177412271499634 0.2805231809616089
2.5872156620025635 -2.141091823577881 0.10788468271493912
3.9832165241241455 6.135959625244141 0.6580358743667603
7.53303337097168 4.826843738555908 0.8803933262825012
11.459331512451172 1.692166805267334 1.0378841161727905
3.9705264568328857 -1.1018707752227783 0.2787456512451172
2.5989651679992676 -2.1348142623901367 0.10569719970226288
3.9798595905303955 6.185011863708496 0.6667543053627014
7.547488212585449 4.877085208892822 0.889015793800354
11.295010566711426 1.7122427225112915 1.0255992412567139
3.974491596221924 -1.087297797203064 0.27946484088897705
2.6068150997161865 -2.1253089904785156 0.10393615067005157
3.9509716033935547 6.185094833374023 0.6718050241470337
7.466637134552002 4.8637261390686035 0.886297881603241
11.155618667602539 1.7329626083374023 1.0154985189437866
4.098911762237549 -1.1052038669586182 0.2871822714805603
2.5990889072418213 -2.103199005126953 0.10156778246164322
3.9492151737213135 6.23258113861084 0.6831782460212708
7.577028274536133 4.975284576416016 0.9095491766929626
11.016841888427734 1.7488387823104858 1.0053508281707764
4.252495765686035 -1.1299121379852295 0.2961077392101288
2.5990281105041504 -2.087432622909546 0.09951873868703842
3.9567816257476807 6.297879219055176 0.6939027309417725
7.612273216247559 5.038453578948975 0.9208187460899353
10.867025375366211 1.7698074579238892 0.9942567944526672
4.358006954193115 -1.1408631801605225 0.30237171053886414
2.61450457572937 -2.0841445922851562 0.09865003079175949
3.849102020263672 6.176629543304443 0.685391366481781
7.601493835449219 5.071483612060547 0.9282020330429077
10.737496376037598 1.789135456085205 0.9849144816398621
4.526147365570068 -1.168013334274292 0.3145725429058075
2.614687919616699 -2.0679216384887695 0.09660965949296951
7.576242923736572 5.091023921966553 0.9287846684455872
10.559515953063965 1.7954882383346558 0.9710145592689514
11.247111320495605 -2.856402635574341 0.7748161554336548
2.618370294570923 -2.055279493331909 0.09414098411798477
3.8053832054138184 6.202528953552246 0.6955524682998657
7.659813404083252 5.188033580780029 0.9495121240615845
2.6001529693603516 0.4519290328025818 0.23971571028232574
11.227975845336914 -2.8098583221435547 0.7728174328804016
2.6180386543273926 -2.039555549621582 0.09212061017751694
3.753786087036133 6.169041156768799 0.6978816390037537
7.6608734130859375 5.229813575744629 0.9569214582443237
2.5837275981903076 0.45837122201919556 0.23973283171653748
11.213848114013672 -2.7626876831054688 0.773167610168457
2.613659143447876 -2.020794153213501 0.09055117517709732
3.748896360397339 6.212164878845215 0.7063140273094177
3.113856554031372 2.142495632171631 0.39193105697631836
2.582071304321289 0.4678454101085663 0.23927484452724457
11.180654525756836 -2.7110824584960938 0.7641380429267883
2.65280818939209 -2.035571336746216 0.0898963212966919
3.7717175483703613 6.302080154418945 0.7227255702018738
3.1098437309265137 2.156571626663208 0.3950888514518738
2.594862222671509 0.47999244928359985 0.24247926473617554
11.336098670959473 -2.7048215866088867 0.7740790843963623
2.6526756286621094 -2.019334316253662 0.08846385031938553
8.293875694274902 13.962926864624023 1.6095607280731201
3.0934832096099854 2.1620595455169678 0.3973442316055298
2.5831758975982666 0.4876291751861572 0.2429407238960266
11.316925048828125 -2.656444787979126 0.7700620293617249
2.664095878601074 -2.012647867202759 0.08626551926136017
8.216819763183594 13.949392318725586 1.6159323453903198
3.0817949771881104 2.1699421405792236 0.39747855067253113
2.5814125537872314 0.49710169434547424 0.24248191714286804
11.33157730102539 -2.616100788116455 0.768362820148468
2.6554934978485107 -1.990903377532959 0.08401118218898773
8.184915542602539 14.018034934997559 1.6374013423919678
3.089756488800049 2.192530870437622 0.4028824269771576
11.345824241638184 -2.5756256580352783 0.7707230448722839
2.670816421508789 -1.9871419668197632 0.08310220390558243
8.130125999450684 14.042142868041992 1.653892159461975
3.085456132888794 2.2065269947052 0.4067215323448181
11.340449333190918 -2.5307347774505615 0.7717595100402832
2.6258294582366943 -1.9387595653533936 0.08034073561429977
8.060547828674316 14.040396690368652 1.6644718647003174
3.0811500549316406 2.2205610275268555 0.40990617871284485
11.364399909973145 -2.4923880100250244 0.7707230448722839
2.62522292137146 -1.9227802753448486 0.07839086651802063
7.983708381652832 14.02535629272461 1.6734424829483032
11.373327255249023 -2.450690269470215 0.7727536559104919
2.6929261684417725 -1.95724356174469 0.07903505116701126
7.919457912445068 14.020424842834473 1.681074619293213
3.646836042404175 2.667126178741455 0.49401140213012695
11.333685874938965 -2.3987138271331787 0.7653961777687073
2.785230875015259 -2.0087718963623047 0.0809277892112732
7.87458610534668 14.061084747314453 1.6966965198516846
3.6208243370056152 2.6685264110565186 0.4941927194595337
11.376725196838379 -2.364290952682495 0.7656754851341248
2.784489870071411 -1.9927641153335571 0.07830173522233963
7.829370498657227 14.10133171081543 1.715158224105835
3.6146607398986816 2.6844842433929443 0.4986681044101715
11.384921073913574 -2.3224966526031494 0.7717595100402832
2.6613564491271973 -1.8899297714233398 0.07464384287595749
10.0939359664917 18.34562873840332 2.252540111541748
3.620361328125 2.709362030029297 0.5048160552978516
9.132959365844727 2.0347647666931152 0.8993169665336609
11.358583450317383 -2.2758543491363525 0.7714617848396301
2.6764378547668457 -1.8859212398529053 0.0748724639415741
10.081384658813477 18.322816848754883 2.2608165740966797
3.639754056930542 2.723874807357788 0.5131442546844482
9.126867294311523 2.03340744972229 0.9118953943252563
11.386067390441895 -2.2854955196380615 0.789671003818512
2.6675546169281006 -1.8810557126998901 0.07749231904745102
10.165741920471191 18.316858291625977 2.257266044616699
3.6217918395996094 2.6897802352905273 0.5092185735702515
9.250927925109863 2.025486946105957 0.9235427975654602
11.372047424316406 -2.32607364654541 0.7994616031646729
2.676872491836548 -1.902354121208191 0.08140603452920914
7.812389850616455 13.955739974975586 1.7120490074157715
3.6316978931427 2.6765403747558594 0.5084311962127686
9.399218559265137 2.0218825340270996 0.9392948746681213
11.387588500976562 -2.3727688789367676 0.8052399158477783
2.791396141052246 -1.9999176263809204 0.0875205397605896
7.900742530822754 13.992992401123047 1.7088136672973633
3.5814671516418457 2.6193184852600098 0.49848318099975586
11.329607963562012 -2.4040493965148926 0.807851254940033
2.6786224842071533 -1.934016466140747 0.08709143847227097
7.942575454711914 13.947432518005371 1.6982951164245605
11.349835395812988 -2.451847791671753 0.81196528673172
2.618938446044922 -1.9055652618408203 0.08707446604967117
7.994321346282959 13.930668830871582 1.6881346702575684
3.080744981765747 2.2186355590820312 0.42316094040870667
11.369583129882812 -2.499765157699585 0.8201534152030945
2.6159048080444336 -1.9180608987808228 0.09003957360982895
8.120495796203613 14.031157493591309 1.6953257322311401
3.084547996520996 2.205064058303833 0.4212835729122162
11.326132774353027 -2.533766508102417 0.8197193145751953
2.668771266937256 -1.9726252555847168 0.0938582792878151
8.182490348815918 14.019501686096191 1.6860737800598145
3.0845625400543213 2.188035488128662 0.41951924562454224
10.239748001098633 2.008958578109741 1.0231566429138184
11.335803031921387 -2.579592704772949 0.8272156715393066
2.6855058670043945 -2.0002565383911133 0.09762861579656601
8.2294340133667 13.976383209228516 1.6703708171844482
3.0716655254364014 2.163611650466919 0.4147956967353821
10.227672576904297 1.9676882028579712 1.0193872451782227
11.350425720214844 -2.6267127990722656 0.8310233950614929
2.6581292152404785 -1.9950546026229858 0.09864025563001633
8.314062118530273 14.00247573852539 1.6685032844543457
3.1042544841766357 2.1695876121520996 0.4154438078403473
10.229926109313965 1.9292664527893066 1.0189001560211182
11.311310768127441 -2.661376476287842 0.8329452276229858
2.6866326332092285 -2.03188419342041 0.10173898190259933
8.391626358032227 14.015832901000977 1.6593444347381592
3.075486183166504 2.1327457427978516 0.4098837673664093
2.57395601272583 0.47566068172454834 0.2557293474674225
11.31075668334961 -2.7050352096557617 0.8397496342658997
2.658881902694702 -2.0269923210144043 0.10331840068101883
8.448678970336914 13.994488716125488 1.6489429473876953
3.0957436561584473 2.130033016204834 0.4095492959022522
2.590416193008423 0.4688904881477356 0.2567284107208252
11.32969856262207 -2.753504514694214 0.8439451456069946
2.6276118755340576 -2.0184242725372314 0.10412665456533432
11.09396743774414 18.239198684692383 2.138357400894165
2.577293634414673 0.4572297930717468 0.2557293474674225
11.289565086364746 -2.789703130722046 0.8478685021400452
2.6280274391174316 -2.03410267829895 0.10734090954065323
11.179727554321289 18.2293701171875 2.1269168853759766
10.404239654541016 1.8064759969711304 1.0298254489898682
11.293630599975586 -2.8346686363220215 0.8509915471076965
2.6244654655456543 -2.046771287918091 0.10866410285234451
11.221076011657715 18.1472110748291 2.1070730686187744
7.533374309539795 5.064126014709473 0.9796972274780273
10.509092330932617 1.7850273847579956 1.0376712083816528
11.298019409179688 -2.8777291774749756 0.8541197180747986
2.6165266036987305 -2.056786060333252 0.11098761111497879
4.659578323364258 7.474289417266846 0.8636085987091064
7.469729900360107 4.981690406799316 0.9626986980438232
4.3932414054870605 -1.13616943359375 0.3332337737083435
2.616743803024292 -2.072518825531006 0.113651342689991
4.668698310852051 7.433892726898193 0.8560848832130432
7.591734886169434 5.022953987121582 0.974436342716217
4.258854389190674 -1.1172895431518555 0.3256520926952362
2.6137166023254395 -2.0842630863189697 0.11557189375162125
4.616442680358887 7.291215419769287 0.8339950442314148
7.622988700866699 5.003559112548828 0.9712586998939514
11.049267768859863 1.7520091533660889 1.0870693922042847
4.119706153869629 -1.096938967704773 0.31681379675865173
2.609907627105713 -2.0969202518463135 0.11749763041734695
4.6567583084106445 7.295589447021484 0.8318681716918945
7.599893569946289 4.948639869689941 0.962797224521637
11.202964782714844 1.7343106269836426 1.1035550832748413
3.9899709224700928 -1.0795656442642212 0.30934399366378784
2.6126670837402344 -2.117206573486328 0.12095841765403748
4.604303359985352 7.152702808380127 0.81009441614151
11.302632331848145 1.7093623876571655 1.1107643842697144
3.9766135215759277 -1.0908628702163696 0.3078779876232147
2.604823589324951 -2.1267144680023193 0.12330608814954758
7.653555870056152 4.904069423675537 0.9553900957107544
11.476408004760742 1.6926418542861938 1.1251811981201172
3.977287769317627 -1.1067382097244263 0.3096913993358612
2.600836992263794 -2.1393940448760986 0.12466485053300858
4.838828086853027 3.075554370880127 0.6016058921813965
11.639970779418945 1.6731979846954346 1.1426801681518555
3.9732439517974854 -1.1205706596374512 0.31185296177864075
2.612901210784912 -2.1638851165771484 0.12795816361904144
4.149256229400635 6.292677402496338 0.7005608677864075
11.779293060302734 1.649182677268982 1.1536606550216675
3.9736530780792236 -1.1371753215789795 0.3129509687423706
2.6041243076324463 -2.1742987632751465 0.13032661378383636
4.169738292694092 6.273585319519043 0.6961540579795837
7.525863170623779 4.7081618309021 0.922071635723114
11.932988166809082 1.6261297464370728 1.170243740081787
3.964564800262451 -1.150312066078186 0.3140144646167755
2.5918633937835693 -2.1810059547424316 0.132499560713768
4.187952041625977 6.255887985229492 0.6917521953582764
7.513759613037109 4.662360191345215 0.9153689742088318
11.939070701599121 1.582409143447876 1.1681417226791382
3.9601643085479736 -1.1647887229919434 0.3161758780479431
2.5990426540374756 -2.203368663787842 0.13506534695625305
4.14162540435791 6.1379008293151855 0.6725609302520752
7.438151836395264 4.5777716636657715 0.8979454636573792
11.925249099731445 1.536122441291809 1.1641124486923218
3.9558684825897217 -1.1792956590652466 0.3161758780479431
2.5984749794006348 -2.2193071842193604 0.1378471404314041
4.17269229888916 6.1353230476379395 0.6700328588485718
7.546804428100586 4.61020565032959 0.9076518416404724
11.9256010055542 1.4938676357269287 1.1636306047439575
3.96132230758667 -1.1952393054962158 0.31910616159439087
2.5986223220825195 -2.2343788146972656 0.1400446742773056
2.6186559200286865 3.8201582431793213 0.4141668379306793
7.531749248504639 4.5595927238464355 0.8974215388298035
11.926257133483887 1.4495720863342285 1.161051869392395
3.9564390182495117 -1.2111151218414307 0.3198283016681671
2.589557409286499 -2.244727611541748 0.14243723452091217
2.6519503593444824 3.8399176597595215 0.4140263795852661
7.5257768630981445 4.521942615509033 0.8918218016624451
11.902033805847168 1.4023797512054443 1.1560746431350708
3.957162857055664 -1.2257033586502075 0.3202136158943176
2.592977523803711 -2.2635929584503174 0.14366087317466736
4.245386123657227 6.099220275878906 0.6540729403495789
7.525339603424072 4.484222412109375 0.8882717490196228
11.90689468383789 1.3587244749069214 1.1581661701202393
3.95205020904541 -1.2415281534194946 0.3223826587200165
2.58750581741333 -2.2771830558776855 0.14747899770736694
4.290792942047119 6.116519927978516 0.6536681056022644
7.520709037780762 4.444192409515381 0.8811758160591125
11.892207145690918 1.312911868095398 1.1541541814804077
3.9477498531341553 -1.254575490951538 0.32455161213874817
2.58735990524292 -2.2923247814178467 0.14971645176410675
4.310699462890625 6.097240447998047 0.6454130411148071
7.504671573638916 4.394165992736816 0.871090292930603
11.8672456741333 1.2661478519439697 1.1512736082077026
3.9426820278167725 -1.2704126834869385 0.32455161213874817
2.5743329524993896 -2.299294948577881 0.15190984308719635
4.33899450302124 6.08978796005249 0.6423590779304504
7.497956275939941 4.35690975189209 0.8655716180801392
11.837139129638672 1.2211612462997437 1.1458359956741333
3.9378910064697266 -1.2848193645477295 0.325997531414032
2.5769686698913574 -2.3186845779418945 0.15438447892665863
4.370328903198242 6.086437702178955 0.637104332447052
7.453160285949707 4.296149253845215 0.8541149497032166
11.851638793945312 1.1787726879119873 1.144715666770935
3.9331014156341553 -1.29922616481781 0.3267204761505127
2.575366735458374 -2.3351998329162598 0.15725645422935486
4.387763500213623 6.06814432144165 0.6327599287033081
7.507864475250244 4.291098117828369 0.8570516109466553
11.840618133544922 1.1338649988174438 1.147432804107666
3.933281898498535 -1.3137681484222412 0.3300088047981262
2.5712361335754395 -2.347038507461548 0.15930524468421936
4.407299518585205 6.0483503341674805 0.627114474773407
7.523931503295898 4.263772487640381 0.8525235652923584
11.859762191772461 1.0918464660644531 1.1467944383621216
3.9421393871307373 -1.3343405723571777 0.33119872212409973
2.5764129161834717 -2.370793581008911 0.16266383230686188
7.505190849304199 4.216885089874268 0.8440920114517212
11.858924865722656 1.0479503870010376 1.1442373991012573
3.9277379512786865 -1.3455311059951782 0.33113008737564087
2.567643404006958 -2.380162239074707 0.16449704766273499
2.66766357421875 3.605140447616577 0.36950603127479553
7.4859466552734375 4.170047760009766 0.8386931419372559
11.842848777770996 1.0027984380722046 1.1423238515853882
3.922560453414917 -1.3598419427871704 0.3340285122394562
2.5624468326568604 -2.392867088317871 0.16779132187366486
2.6667420864105225 3.575103759765625 0.36433953046798706
11.841514587402344 0.9610666036605835 1.1397719383239746
3.931603193283081 -1.3791393041610718 0.33595868945121765
2.560891628265381 -2.409046173095703 0.16949665546417236
2.681727886199951 3.5704283714294434 0.36162930727005005
11.840193748474121 0.9172897338867188 1.1372218132019043
3.9268975257873535 -1.3921302556991577 0.3374130427837372
2.5596096515655518 -2.4247372150421143 0.17305505275726318
