# .PCD v0.7 - Point Cloud Data file format
VERSION 0.7
FIELDS x y z
SIZE 4 4 4
TYPE F F F
COUNT 1 1 1
WIDTH 833
HEIGHT 1
VIEWPOINT 0 0 0 1 0 0 0
POINTS 833
DATA ascii
4.244144916534424 -0.739958643913269 -0.9653582572937012
2.361847162246704 -1.6027004718780518 -0.48379188776016235
3.3734829425811768 2.879190444946289 -0.8974959850311279
3.9950995445251465 1.092935562133789 -0.9745247960090637
4.227054119110107 -0.7202658653259277 -0.9639790654182434
2.3226516246795654 -1.5631120204925537 -0.477044016122818
3.3673348426818848 2.8953425884246826 -0.8938376307487488
3.958916187286377 1.0979046821594238 -0.9643576741218567
4.219998359680176 -0.7024003267288208 -0.9625322818756104
2.364834785461426 -1.578938364982605 -0.4875807762145996
1.4001561403274536 -2.2131173610687256 -0.24202050268650055
3.379640579223633 2.9275364875793457 -0.895075261592865
3.982720136642456 1.1224929094314575 -0.9697690010070801
4.208054542541504 -0.683817446231842 -0.9599838256835938
2.510498523712158 -1.6616626977920532 -0.5189391374588013
1.4356063604354858 -2.249116897583008 -0.25081321597099304
3.3727731704711914 2.944331645965576 -0.8913687467575073
3.9975924491882324 1.1432714462280273 -0.972155749797821
4.220118999481201 -0.6691562533378601 -0.9629263877868652
2.507880210876465 -1.6467429399490356 -0.5203825831413269
1.4459261894226074 -2.247943878173828 -0.25547993183135986
3.381073474884033 2.9734838008880615 -0.8915356397628784
4.012040138244629 1.164086937904358 -0.9759799838066101
4.207698345184326 -0.6506341695785522 -0.9618580341339111
1.4647902250289917 -2.259030342102051 -0.26114243268966675
3.3865842819213867 2.998304605484009 -0.8906842470169067
3.989182472229004 1.1740802526474 -0.9699785113334656
4.214822292327881 -0.6351747512817383 -0.9637038707733154
1.4716792106628418 -2.254110097885132 -0.26490145921707153
3.379401445388794 3.015171766281128 -0.8869079351425171
3.9991302490234375 1.1937127113342285 -0.9712008237838745
4.2165632247924805 -0.6188884973526001 -0.9666793346405029
3.3873822689056396 3.0446643829345703 -0.8861486315727234
4.014073371887207 1.2134493589401245 -0.9735382795333862
4.214248180389404 -0.6020277738571167 -0.9648302793502808
3.380411148071289 3.0608720779418945 -0.8831243515014648
4.01409912109375 1.2318311929702759 -0.9724706411361694
4.187051773071289 -0.5817463397979736 -0.9604127407073975
2.506941080093384 -1.5799273252487183 -0.5283710360527039
3.4024975299835205 3.1036417484283447 -0.8868576288223267
4.000254154205322 1.243643045425415 -0.9702142477035522
4.193586826324463 -0.5662498474121094 -0.9637362360954285
2.5076019763946533 -1.5687497854232788 -0.5300747156143188
3.3743550777435303 3.0996196269989014 -0.876533031463623
3.9964749813079834 1.2585501670837402 -0.9665582180023193
4.17656135559082 -0.5476301312446594 -0.9585598707199097
2.7390260696411133 -1.698930025100708 -0.5805150270462036
3.3925979137420654 3.139381170272827 -0.8784022927284241
4.001057147979736 1.276900291442871 -0.9680730700492859
4.173464775085449 -0.5309317708015442 -0.958919107913971
2.6866261959075928 -1.6515309810638428 -0.5714099407196045
3.4210453033447266 3.1890602111816406 -0.8854056596755981
4.0012431144714355 1.2939088344573975 -0.9669944047927856
4.179631233215332 -0.5168970227241516 -0.9622353911399841
2.7503621578216553 -1.67816960811615 -0.5872642993927002
3.407766103744507 3.1978676319122314 -0.8779513835906982
4.010619640350342 1.3139723539352417 -0.9681462645530701
4.176579475402832 -0.5002450346946716 -0.9618560075759888
2.6722683906555176 -1.616471529006958 -0.5715130567550659
3.4169905185699463 3.232417345046997 -0.8785653710365295
4.024528980255127 1.335662841796875 -0.9703978896141052
4.16394567489624 -0.48104846477508545 -0.9592438340187073
2.677746295928955 -1.606408953666687 -0.5742383599281311
3.410587787628174 3.247858762741089 -0.8737301230430603
4.029092788696289 1.3543740510940552 -0.9704033136367798
4.160589218139648 -0.4659495949745178 -0.9588592648506165
2.6750974655151367 -1.5908836126327515 -0.5746027231216431
4.010498046875 1.36528480052948 -0.9648465514183044
4.1671833992004395 -0.4490218758583069 -0.9607070088386536
2.671921730041504 -1.575767159461975 -0.5760359168052673
3.408749580383301 3.2952423095703125 -0.8684473037719727
4.019531726837158 1.3856053352355957 -0.9659515023231506
4.130096912384033 -0.4289897382259369 -0.9517701864242554
2.6818478107452393 -1.5677733421325684 -0.5791176557540894
3.42549204826355 3.335801839828491 -0.8706477880477905
4.023866653442383 1.4044091701507568 -0.9659355282783508
4.12185001373291 -0.41214191913604736 -0.9502590298652649
2.682798147201538 -1.5551637411117554 -0.5814489722251892
3.4210240840911865 3.3559677600860596 -0.8665850162506104
4.032715797424316 1.4248918294906616 -0.9670117497444153
4.152078151702881 -0.39833691716194153 -0.9591507911682129
2.6881277561187744 -1.5451178550720215 -0.5836136937141418
3.438533306121826 3.395592451095581 -0.8686426281929016
4.032283782958984 1.4421788454055786 -0.9658722281455994
4.1438727378845215 -0.38149774074554443 -0.9569098353385925
2.6849708557128906 -1.5296176671981812 -0.585000216960907
3.4512417316436768 3.433218240737915 -0.868887722492218
4.046049118041992 1.4630521535873413 -0.968019962310791
4.125598430633545 -0.3652969002723694 -0.953150749206543
2.6858367919921875 -1.5170990228652954 -0.5867622494697571
3.456770420074463 3.4640181064605713 -0.8673022985458374
4.0405192375183105 1.4802193641662598 -0.9650160074234009
4.1121954917907715 -0.34675630927085876 -0.9512273073196411
2.682713270187378 -1.5017764568328857 -0.5870400667190552
3.4516196250915527 3.484304904937744 -0.8639119267463684
4.030703544616699 1.4942022562026978 -0.9616712331771851
4.118186950683594 -0.3313414454460144 -0.9530713558197021
2.6920440196990967 -1.4940675497055054 -0.5906649231910706
3.4568300247192383 3.515240430831909 -0.862226128578186
4.0348100662231445 1.5125682353973389 -0.9615983366966248
4.124287128448486 -0.31589844822883606 -0.9541952610015869
2.6844024658203125 -1.4763729572296143 -0.5905125141143799
3.4629950523376465 3.544947385787964 -0.8613438606262207
4.052795886993408 1.5354670286178589 -0.9647743105888367
4.096044540405273 -0.29935726523399353 -0.9481686353683472
2.6894333362579346 -1.4663265943527222 -0.5926511287689209
3.440314769744873 3.5476508140563965 -0.8536006212234497
4.047183990478516 1.5511375665664673 -0.9632614254951477
2.6902692317962646 -1.4534097909927368 -0.5943700075149536
3.420137643814087 3.555290699005127 -0.8441504240036011
4.059638500213623 1.5754451751708984 -0.9638007283210754
3.1793487071990967 -0.2067137211561203 -0.7361460328102112
2.6999502182006836 -1.4446685314178467 -0.5979965329170227
3.40893816947937 3.5672502517700195 -0.8389837741851807
4.045492172241211 1.5862256288528442 -0.9593645930290222
3.1897757053375244 -0.19621266424655914 -0.7383972406387329
2.726372003555298 -1.446587324142456 -0.6044042706489563
3.376085042953491 3.5588953495025635 -0.8288183212280273
4.071204662322998 1.6160151958465576 -0.9638524651527405
3.180842399597168 -0.18229222297668457 -0.7361460328102112
2.7706801891326904 -1.4558736085891724 -0.6163302659988403
3.3401434421539307 3.5469539165496826 -0.8161855340003967
4.0841383934021 1.6376745700836182 -0.9658467769622803
3.190861940383911 -0.1705767959356308 -0.7400704622268677
2.8014636039733887 -1.4595928192138672 -0.6243320107460022
3.3120017051696777 3.5405209064483643 -0.8078244924545288
4.087184429168701 1.657141089439392 -0.9664511680603027
3.18660044670105 -0.1586383730173111 -0.7389422655105591
2.841426134109497 -1.466569423675537 -0.6348783373832703
3.30312442779541 3.5570743083953857 -0.8018693327903748
4.054740905761719 1.661316990852356 -0.9562061429023743
3.192052125930786 -0.1466250866651535 -0.7400704622268677
2.890043258666992 -1.4782735109329224 -0.6468821167945862
3.3040084838867188 3.5842835903167725 -0.8000245690345764
4.080544471740723 1.6902167797088623 -0.9605848789215088
3.1731245517730713 -0.13354811072349548 -0.7355578541755676
2.9259097576141357 -1.4824728965759277 -0.6560123562812805
3.3214898109436035 3.629854440689087 -0.8013016581535339
4.083347320556641 1.7097761631011963 -0.9611648321151733
2.9701342582702637 -1.491224765777588 -0.6683182716369629
3.3287320137023926 3.6646480560302734 -0.8000760078430176
4.095215797424316 1.7332570552825928 -0.963080108165741
2.9974679946899414 -1.490565299987793 -0.6749998331069946
3.3623085021972656 3.7289834022521973 -0.8042337894439697
4.10712194442749 1.7569217681884766 -0.9641950130462646
4.0941572189331055 -0.12508781254291534 -0.9509241580963135
3.037917137145996 -1.4961580038070679 -0.685270369052887
3.3664870262145996 3.7599246501922607 -0.8011417984962463
4.110400676727295 1.7761746644973755 -0.9623976349830627
4.0754618644714355 -0.10885512083768845 -0.9449782967567444
3.1046011447906494 -1.5148860216140747 -0.7015661597251892
3.3735880851745605 3.7944247722625732 -0.8005287647247314
4.1176066398620605 1.7980822324752808 -0.9624130725860596
4.0852580070495605 -0.0934208557009697 -0.9486626982688904
3.1230764389038086 -1.5090817213058472 -0.7075786590576172
3.3805835247039795 3.829127311706543 -0.7989612221717834
4.13413667678833 1.8225096464157104 -0.9652837514877319
3.8567159175872803 -0.07337936013936996 -0.895519495010376
3.1725878715515137 -1.5180073976516724 -0.7200283408164978
3.0772600173950195 3.5114145278930664 -0.7253028750419617
4.123255252838135 1.8366540670394897 -0.9610880613327026
3.691392660140991 -0.056055761873722076 -0.8570755124092102
3.239635467529297 -1.5355212688446045 -0.7365708947181702
3.0584616661071777 3.515878438949585 -0.7180750370025635
4.121262550354004 1.853898048400879 -0.9605519771575928
3.2803878784179688 -1.5394396781921387 -0.747783362865448
3.033285617828369 3.5128555297851562 -0.708549439907074
4.14174747467041 1.8822675943374634 -0.9620257616043091
3.66249680519104 -0.02684798464179039 -0.8502913117408752
3.317002296447754 -1.5411087274551392 -0.7567721605300903
3.096207618713379 3.609856367111206 -0.7200950384140015
4.157177925109863 1.908573031425476 -0.9648028612136841
3.6479616165161133 -0.012733840383589268 -0.846899151802063
3.3749730587005615 -1.5544556379318237 -0.7715234160423279
3.075087308883667 3.609384536743164 -0.7128843069076538
4.164083003997803 1.9302536249160767 -0.964694619178772
3.6479835510253906 0.0012733865296468139 -0.846899151802063
3.425088405609131 -1.5616247653961182 -0.7836595773696899
3.0407509803771973 3.594423532485962 -0.7011076807975769
4.171226978302002 1.9512829780578613 -0.9645652174949646
3.6429388523101807 0.013987950049340725 -0.8464043140411377
3.4348955154418945 -1.550193190574646 -0.7879675626754761
3.136251211166382 3.734990358352661 -0.7201892733573914
4.164311408996582 1.9675718545913696 -0.9613500237464905
3.633118152618408 0.02790089324116707 -0.8441411852836609
2.2875890731811523 -1.0218509435653687 -0.5256964564323425
3.170694589614868 3.8042354583740234 -0.7242315411567688
4.18007230758667 1.9937920570373535 -0.9616089463233948
3.6332786083221436 0.041854213923215866 -0.8428728580474854
2.291066884994507 -1.01334810256958 -0.5270082950592041
3.49617075920105 4.223141670227051 -0.7959060072898865
4.177098274230957 2.0120978355407715 -0.9610069990158081
3.6376664638519287 0.055874940007925034 -0.8452727198600769
2.290037155151367 -1.002397060394287 -0.5281606316566467
3.5427050590515137 4.314494609832764 -0.8024784922599792
4.183154106140137 2.0348408222198486 -0.9608041048049927
3.5610427856445312 4.3647141456604 -0.8027111887931824
4.194154739379883 2.0592355728149414 -0.9599571824073792
2.9983320236206055 -1.285086750984192 -0.6933854818344116
3.5394043922424316 4.370800495147705 -0.7944297790527344
4.208759784698486 2.086500406265259 -0.9617091417312622
4.099437236785889 0.1109275072813034 -0.9520549178123474
2.9801783561706543 -1.2643967866897583 -0.6898828148841858
4.227601528167725 2.116102457046509 -0.9644257426261902
4.104014873504639 0.12682291865348816 -0.9524688720703125
2.9664218425750732 -1.245141625404358 -0.6885221004486084
4.254727840423584 2.1501498222351074 -0.970757007598877
4.122635841369629 0.14324520528316498 -0.9584284424781799
2.9526772499084473 -1.226058840751648 -0.6865687370300293
4.2477216720581055 2.1661903858184814 -0.9657643437385559
4.122555732727051 0.1590932011604309 -0.9562684297561646
4.223299503326416 2.1723451614379883 -0.9584786891937256
4.136513710021973 0.17554102838039398 -0.9596554040908813
4.232537746429443 2.198627233505249 -0.9591057300567627
4.1213788986206055 0.19075487554073334 -0.9555483460426331
2.5846829414367676 -1.0379880666732788 -0.6037341356277466
4.2551984786987305 2.2311878204345703 -0.9618133306503296
4.10568904876709 0.20583003759384155 -0.9535987377166748
2.5652947425842285 -1.0198177099227905 -0.5998837351799011
4.256497859954834 2.250847101211548 -0.9612551331520081
4.119625568389893 0.2223898470401764 -0.9562684297561646
2.9326367378234863 -1.1528319120407104 -0.68647301197052
4.274123191833496 2.2821693420410156 -0.9629005789756775
4.104319095611572 0.2373722791671753 -0.9521637558937073
2.9410347938537598 -1.1431149244308472 -0.690291166305542
4.114296913146973 5.424315929412842 -0.8818053007125854
4.292633056640625 2.311344623565674 -0.9653447270393372
4.132883071899414 0.25495007634162903 -0.9574874639511108
2.9220738410949707 -1.1234347820281982 -0.6865876317024231
4.1729350090026855 2.266662120819092 -0.9351217746734619
4.12717866897583 0.2705095410346985 -0.9556390643119812
2.944709539413452 -1.118590235710144 -0.6914218664169312
4.155229568481445 2.279637098312378 -0.9307082891464233
4.121033191680908 0.2867251932621002 -0.9552344679832458
2.9893617630004883 -1.1230318546295166 -0.7038566470146179
4.088095664978027 2.2604753971099854 -0.9139586687088013
4.124926567077637 0.30291566252708435 -0.9556390643119812
2.9701921939849854 -1.1028345823287964 -0.7012406587600708
2.614534616470337 3.552755355834961 -0.5478687882423401
4.109942436218262 2.2932050228118896 -0.9173935651779175
4.109161853790283 0.3176257014274597 -0.952262282371521
2.9648947715759277 -1.0879322290420532 -0.7007333040237427
2.6207571029663086 3.5860607624053955 -0.5453652739524841
4.128150463104248 2.3232462406158447 -0.9173465371131897
4.122644901275635 0.334597110748291 -0.9549171924591064
2.964231491088867 -1.0747926235198975 -0.700751006603241
2.626100778579712 3.6198291778564453 -0.5435581207275391
4.136831760406494 2.349092721939087 -0.9178280234336853
4.165186882019043 0.3541533946990967 -0.9643104672431946
2.922046422958374 -1.0468194484710693 -0.6915286779403687
2.4403700828552246 -2.375643730163574 -0.610335648059845
4.3334150314331055 2.4817702770233154 -0.9589356780052185
4.120285511016846 0.3662760257720947 -0.9534733295440674
2.907302141189575 -1.0289586782455444 -0.6887943744659424
2.455599546432495 -2.373002052307129 -0.6162721514701843
4.375457763671875 2.5282084941864014 -0.9667229056358337
4.133569240570068 0.3834596276283264 -0.9561179280281067
2.8920645713806152 -1.0116534233093262 -0.6871089339256287
2.4920568466186523 -2.390631675720215 -0.628198504447937
3.845221519470215 5.418759822845459 -0.7793675661087036
4.379911422729492 2.5522403717041016 -0.9633487462997437
4.12286376953125 0.3984391391277313 -0.9517049193382263
2.8913776874542236 -0.9984043836593628 -0.6865487098693848
2.50089955329895 -2.380742311477661 -0.6306092143058777
3.821108102798462 5.424802303314209 -0.7700964212417603
4.42995023727417 2.6042354106903076 -0.9728302359580994
4.140531063079834 0.41619959473609924 -0.9569098353385925
2.8853302001953125 -0.9844948053359985 -0.6864873170852661
2.5018181800842285 -2.3641982078552246 -0.6336194276809692
3.8159639835357666 5.459895610809326 -0.7648409008979797
4.416877746582031 2.6183812618255615 -0.9674196839332581
4.124859809875488 0.4306289255619049 -0.9513769745826721
2.8748819828033447 -0.9686220288276672 -0.6847806572914124
2.506314516067505 -2.3511173725128174 -0.6369131207466125
3.7635796070098877 5.425177097320557 -0.7476258873939514
4.4167256355285645 2.639169692993164 -0.965679407119751
4.118495464324951 0.445957213640213 -0.9495360255241394
2.8874940872192383 -0.9605414271354675 -0.6885759830474854
2.5108282566070557 -2.3381102085113525 -0.6395951509475708
3.8230690956115723 5.5542893409729 -0.7551398277282715
4.437212944030762 2.673530101776123 -0.9676153659820557
4.160175323486328 0.466638445854187 -0.9603205919265747
2.900198221206665 -0.9524149298667908 -0.6918485164642334
2.511505603790283 -2.3216121196746826 -0.6425385475158691
3.85084867477417 5.638788223266602 -0.7562582492828369
4.453166484832764 2.7054390907287598 -0.9694861173629761
4.153677940368652 0.4820663332939148 -0.9584728479385376
2.8663835525512695 -0.9291325807571411 -0.6845848560333252
2.519500970840454 -2.3119351863861084 -0.6461198329925537
3.8588151931762695 5.688746929168701 -0.7516146898269653
4.443752288818359 2.723134756088257 -0.9631195068359375
4.162139415740967 0.4992523193359375 -0.957780659198761
2.8697025775909424 -0.9180468916893005 -0.685636579990387
2.513413190841675 -2.2886343002319336 -0.6453731656074524
4.45522928237915 2.7526800632476807 -0.9640066623687744
4.170032501220703 0.5164488554000854 -0.9592747688293457
2.858690023422241 -0.9024386405944824 -0.6849246025085449
2.521113872528076 -2.2788004875183105 -0.6501188278198242
3.1204416751861572 4.671835899353027 -0.5994114875793457
4.474556922912598 2.7884182929992676 -0.9657422304153442
4.153254985809326 0.5313074588775635 -0.9566670060157776
2.861905574798584 -0.8913843631744385 -0.6859709620475769
2.528855800628662 -2.269012451171875 -0.6542702317237854
3.1340279579162598 4.729617118835449 -0.5963348746299744
4.473349571228027 2.8104805946350098 -0.9629341959953308
4.180775165557861 0.5504094362258911 -0.9611413478851318
2.5256450176239014 -2.2494771480560303 -0.654975950717926
3.0933597087860107 4.703821182250977 -0.5837709903717041
4.476194858551025 2.8352034091949463 -0.961000382900238
4.174033164978027 0.5665770769119263 -0.9585598707199097
2.5186502933502197 -2.2267467975616455 -0.6546943187713623
3.081976890563965 4.724137783050537 -0.5769271850585938
4.507589817047119 2.879399538040161 -0.9643226861953735
4.171992301940918 0.5826230645179749 -0.9578246474266052
2.5261917114257812 -2.2169711589813232 -0.6588011384010315
3.083731174468994 4.759433746337891 -0.5730515718460083
4.510406970977783 2.9045310020446777 -0.9604305624961853
4.174715995788574 0.5993547439575195 -0.9581972360610962
2.8040049076080322 -0.8263272643089294 -0.6743429899215698
2.5341639518737793 -2.206800699234009 -0.6623204350471497
4.429965972900391 2.8757545948028564 -0.9426860809326172
4.172714710235596 0.6154287457466125 -0.9567249417304993
2.8490350246429443 -0.8277211785316467 -0.6854937672615051
2.523069143295288 -2.1809306144714355 -0.6615609526634216
4.2555718421936035 2.7847681045532227 -0.9013313055038452
4.165664196014404 0.6307411789894104 -0.9548835754394531
2.8800604343414307 -0.8247560858726501 -0.6932932138442993
3.167219877243042 5.004242897033691 -0.5733832120895386
4.241392612457275 2.7988078594207764 -0.8960245847702026
4.1732401847839355 0.6467975378036499 -0.956356942653656
2.615452527999878 -0.7381266951560974 -0.6314085721969604
2.3218839168548584 -1.9767768383026123 -0.6109892129898071
4.211252689361572 2.80112886428833 -0.8872699737548828
4.175640106201172 0.6650922894477844 -0.955985426902771
2.6088831424713135 -0.7254691123962402 -0.6291454434394836
2.324798107147217 -1.9646066427230835 -0.6137260794639587
3.4322197437286377 5.509803771972656 -0.6101874113082886
4.140232563018799 2.775831937789917 -0.8699612617492676
4.183011531829834 0.682745635509491 -0.9567112326622009
2.2901909351348877 -1.9210171699523926 -0.6059854626655579
3.4327032566070557 5.551516532897949 -0.6043500304222107
4.180257797241211 2.8238675594329834 -0.874994695186615
4.200342178344727 0.700635552406311 -0.9588854312896729
2.2481071949005127 -1.8710589408874512 -0.5961342453956604
4.165445804595947 2.8382797241210938 -0.8697417974472046
4.19795036315918 0.7168146967887878 -0.9573989510536194
4.00431489944458 -1.0639691352844238 -0.968740701675415
4.293882846832275 2.9488978385925293 -0.8931939005851746
4.204686641693115 0.7361041307449341 -0.9588473439216614
4.017462730407715 -1.05096435546875 -0.9724669456481934
2.275939464569092 -1.8661538362503052 -0.6062939763069153
4.272686004638672 2.9552392959594727 -0.8852190375328064
4.216828346252441 0.753409743309021 -0.9606395363807678
4.0071611404418945 -1.0318466424942017 -0.9697690010070801
2.3623526096343994 -1.9218865633010864 -0.6306684613227844
4.209434509277344 0.7687792778015137 -0.9580517411231995
4.005718231201172 -1.0150904655456543 -0.9715132117271423
2.2964210510253906 -1.854302167892456 -0.6150102019309998
2.1008219718933105 3.532567262649536 -0.35091015696525574
4.216675281524658 0.7860828638076782 -0.9579908847808838
4.009760856628418 -0.9990023374557495 -0.9715132117271423
2.2875068187713623 -1.833294153213501 -0.6134889721870422
2.0728907585144043 3.5148603916168213 -0.3433729410171509
4.285800933837891 3.035639524459839 -0.8788784146308899
4.209160327911377 0.8014175891876221 -0.9554054141044617
4.003783226013184 -0.9812009334564209 -0.9706636667251587
2.035715341567993 3.4795260429382324 -0.3328484892845154
4.3154120445251465 3.0804269313812256 -0.8825043439865112
4.21596097946167 0.8194997906684875 -0.9560826420783997
3.9926695823669434 -0.9622410535812378 -0.9700930714607239
2.250349998474121 -1.7759441137313843 -0.6056793332099915
2.01631236076355 3.4741275310516357 -0.32530492544174194
4.5772786140441895 3.292743682861328 -0.9314396381378174
4.222684860229492 0.8376460075378418 -0.9567528963088989
4.01054048538208 -0.9502691030502319 -0.9735413193702698
1.9888458251953125 3.4559168815612793 -0.3180120885372162
4.661706447601318 3.3794751167297363 -0.9459732174873352
4.21992826461792 0.8539530634880066 -0.9544987082481384
4.013993740081787 -0.9348241686820984 -0.974260687828064
2.2897210121154785 -1.779292345046997 -0.6184827089309692
1.9608880281448364 3.4322328567504883 -0.3097105324268341
4.698035717010498 3.432150363922119 -0.9485929012298584
4.226507186889648 0.8721907138824463 -0.9551568031311035
4.007735729217529 -0.9171578884124756 -0.9733953475952148
2.3924074172973633 -1.8450639247894287 -0.6482486724853516
4.62600564956665 3.406848430633545 -0.9305084943771362
4.252446174621582 0.8945807814598083 -0.9586061239242554
4.020389556884766 -0.9038222432136536 -0.9771377444267273
2.3485591411590576 -1.7969082593917847 -0.6371932029724121
4.622326374053955 3.430339813232422 -0.9250755906105042
4.239758014678955 0.9089254140853882 -0.954938530921936
4.004827499389648 -0.8841829299926758 -0.972523033618927
2.296522378921509 -1.7431554794311523 -0.6244146227836609
4.53128719329834 3.3886024951934814 -0.9042707085609436
4.255645751953125 0.9294370412826538 -0.9577195644378662
4.002774715423584 -0.8676246404647827 -0.974229097366333
2.4156315326690674 -1.8196481466293335 -0.6577456593513489
2.6874048709869385 4.86220645904541 -0.4021192789077759
4.44872522354126 3.3523552417755127 -0.8832626342773438
4.271767616271973 0.9501574039459229 -0.9589593410491943
3.99180269241333 -0.8492120504379272 -0.9707578420639038
2.3438801765441895 -1.7515331506729126 -0.639047384262085
2.6451542377471924 4.823475360870361 -0.39046794176101685
4.295413970947266 3.2615785598754883 -0.8503671288490295
4.26841402053833 0.9666266441345215 -0.9574317336082458
4.0140604972839355 -0.8371186852455139 -0.9761016368865967
2.463505744934082 -1.8268938064575195 -0.6731983423233032
2.6548051834106445 4.881412982940674 -0.3856341540813446
4.2018632888793945 3.2148916721343994 -0.8275507092475891
4.293883323669434 0.9897425174713135 -0.9607669711112976
4.01248025894165 -0.8207250237464905 -0.9749438762664795
2.293212413787842 -1.6869980096817017 -0.6264503598213196
2.6569786071777344 4.926302433013916 -0.3796120285987854
4.191977024078369 3.2294225692749023 -0.8210863471031189
4.300393581390381 1.0078563690185547 -0.9598139524459839
3.991424083709717 -0.8004634380340576 -0.9705754518508911
2.4253382682800293 -1.7698842287063599 -0.6639798283576965
4.298826694488525 3.3357138633728027 -0.8355399370193481
4.3209099769592285 1.030182957649231 -0.9620218873023987
4.018497467041016 -0.7898546457290649 -0.9756587147712708
2.636349678039551 4.927091121673584 -0.36528220772743225
4.240825653076172 3.290707588195801 -0.8194725513458252
4.326966762542725 1.0316270589828491 -0.9568700790405273
4.0432562828063965 -0.7961871027946472 -0.9764184951782227
2.649467945098877 4.908275604248047 -0.3704710602760315
4.186624526977539 3.222970724105835 -0.8084890842437744
4.354691982269287 1.0205819606781006 -0.9621276259422302
4.055767059326172 -0.8133671879768372 -0.9755456447601318
2.391068696975708 -1.7442364692687988 -0.6490984559059143
2.66871976852417 4.902919292449951 -0.3785970211029053
4.244969844818115 3.2431774139404297 -0.822226881980896
4.3442888259887695 1.0005624294281006 -0.9589731693267822
4.067127704620361 -0.8333820104598999 -0.9768150448799133
2.3021347522735596 -1.6935616731643677 -0.6226150393486023
2.7008848190307617 4.918990135192871 -0.38650381565093994
4.339630126953125 3.2891857624053955 -0.8420015573501587
4.348270416259766 0.9831153750419617 -0.9589731693267822
4.078859806060791 -0.8521181344985962 -0.9773416519165039
2.363347053527832 -1.7519786357879639 -0.6366010904312134
2.7129428386688232 4.900328159332275 -0.3936378061771393
4.327495098114014 3.255084276199341 -0.8411978483200073
4.361556529998779 0.9685312509536743 -0.9610760807991028
4.066534519195557 -0.8658522963523865 -0.9728813767433167
2.4161829948425293 -1.8049063682556152 -0.6493054032325745
2.7410919666290283 4.912656784057617 -0.40226373076438904
4.338806629180908 3.2387611865997314 -0.8459230065345764
4.350588798522949 0.9485817551612854 -0.9594759941101074
4.087944507598877 -0.8853387236595154 -0.97565758228302
2.320470094680786 -1.746061086654663 -0.6225671768188477
4.334177017211914 3.2106356620788574 -0.8475430607795715
4.344639778137207 0.9298239350318909 -0.9573696255683899
4.084532737731934 -0.9025278687477112 -0.9741974472999573
2.376554250717163 -1.8032491207122803 -0.6346513628959656
4.3459954261779785 3.1936190128326416 -0.8513084053993225
4.366823196411133 0.9178462624549866 -0.9631401896476746
4.114794731140137 -0.9257999658584595 -0.9799279570579529
2.312251091003418 -1.7678494453430176 -0.6154896020889282
1.9680577516555786 3.440598487854004 -0.29942405223846436
4.332025527954102 3.1612844467163086 -0.851311206817627
4.3508405685424805 0.8970568180084229 -0.9604712128639221
4.116623401641846 -0.9428326487541199 -0.9781114459037781
2.3252475261688232 -1.7919752597808838 -0.6181001663208008
2.0022850036621094 3.472257137298584 -0.3077109158039093
4.308076858520508 3.117382049560547 -0.8488969802856445
4.349462032318115 0.8793756365776062 -0.959414541721344
4.108561038970947 -0.9576041102409363 -0.9755107164382935
2.350182294845581 -1.8249601125717163 -0.6227066516876221
2.0323214530944824 3.4946835041046143 -0.3160349428653717
4.310309886932373 3.0961313247680664 -0.8519521355628967
4.362064838409424 0.8645032644271851 -0.963080108165741
4.148182392120361 -0.9836470484733582 -0.9826728105545044
2.347930431365967 -1.8370455503463745 -0.6200891137123108
2.051844835281372 3.5000834465026855 -0.3228691816329956
4.28484582901001 3.0540950298309326 -0.84941166639328
4.369983673095703 0.8486472964286804 -0.9649154543876648
4.1399712562561035 -0.9985055327415466 -0.9800631999969482
2.0784754753112793 3.51871395111084 -0.3295288383960724
4.2469305992126465 3.003657102584839 -0.845297634601593
4.358808994293213 0.8291221857070923 -0.9617379307746887
4.146092414855957 -1.015309453010559 -0.9815609455108643
2.2819595336914062 -1.811903476715088 -0.6002411246299744
2.108353853225708 3.541010856628418 -0.3380964398384094
4.371237277984619 0.8141071796417236 -0.9654083847999573
4.1519246101379395 -1.0351911783218384 -0.9808148741722107
4.354772567749023 0.7937520146369934 -0.9627100229263306
4.1533074378967285 -1.0524911880493164 -0.9789409637451172
2.288262367248535 -1.845735788345337 -0.5975906848907471
4.348333835601807 0.7753393054008484 -0.9598139524459839
4.149565696716309 -1.0685158967971802 -0.9774453639984131
2.327357769012451 -1.8920668363571167 -0.605878472328186
3.0799641609191895 5.04777193069458 -0.5079814791679382
4.2114973068237305 2.8858320713043213 -0.8461028933525085
4.360573768615723 0.7602577209472656 -0.9634825587272644
4.056471824645996 -1.061169147491455 -0.9533903002738953
3.4292280673980713 5.5806756019592285 -0.571905791759491
4.156667709350586 2.824868679046631 -0.8374090790748596
4.339050769805908 0.7393494248390198 -0.9597018957138062
3.9066038131713867 -1.0380067825317383 -0.9176130294799805
2.2728006839752197 -1.8755518198013306 -0.5888181328773499
3.472895860671997 5.6055755615234375 -0.5838767290115356
4.215696811676025 2.8424530029296875 -0.8499329686164856
4.36611795425415 0.7267213463783264 -0.9642550945281982
3.492006778717041 5.592722415924072 -0.593083381652832
4.213665008544922 2.8176090717315674 -0.8518836498260498
4.325148105621338 0.7028453946113586 -0.9562061429023743
2.6012983322143555 -0.7126107215881348 -0.6088162064552307
2.2823169231414795 -1.9123775959014893 -0.5874226093292236
3.490816116333008 5.545468330383301 -0.5986497402191162
4.2356672286987305 2.809910535812378 -0.8588057160377502
4.33729887008667 0.6877366900444031 -0.9591045379638672
2.6081461906433105 -0.7252641916275024 -0.6100732088088989
2.3620734214782715 -1.993987798690796 -0.6059046983718872
3.5400683879852295 5.5782551765441895 -0.6117257475852966
4.265898704528809 2.8075037002563477 -0.8674275279045105
4.339576244354248 0.6710264086723328 -0.9606373906135559
3.4893791675567627 5.45619010925293 -0.6076532006263733
4.564931392669678 2.979248046875 -0.9307948350906372
4.346785068511963 0.6550616025924683 -0.9624732136726379
2.9924066066741943 -0.8569284677505493 -0.6980501413345337
2.523632049560547 -2.162250280380249 -0.6435685157775879
3.593250274658203 5.577770709991455 -0.6318641901016235
4.653733253479004 3.012939929962158 -0.9516233801841736
4.3441033363342285 0.6376082301139832 -0.9629364609718323
2.9708874225616455 -0.8619982004165649 -0.6925938725471497
2.535630702972412 -2.1871538162231445 -0.6442310214042664
3.6122753620147705 5.564542293548584 -0.6399698853492737
4.680627346038818 3.006063461303711 -0.9598617553710938
4.327345848083496 0.6181843876838684 -0.9578890204429626
2.5381550788879395 -2.2079405784606934 -0.6429553627967834
3.22343373298645 4.9259233474731445 -0.5761753916740417
4.678960800170898 2.9796788692474365 -0.962152361869812
4.358546257019043 0.6055737137794495 -0.9650787115097046
2.5379388332366943 -2.2241458892822266 -0.6412990093231201
4.6476359367370605 2.9358432292938232 -0.957445502281189
4.345986366271973 0.5868280529975891 -0.9633961915969849
2.5339550971984863 -2.2371277809143066 -0.6386931538581848
3.332106590270996 5.013325214385986 -0.6050871014595032
4.648291110992432 2.9147369861602783 -0.960517942905426
4.353216648101807 0.5707931518554688 -0.9637027382850647
2.526319742202759 -2.246917247772217 -0.6345629692077637
4.655276775360107 2.8920211791992188 -0.966352105140686
4.335498332977295 0.5515450835227966 -0.961703360080719
2.7037391662597656 -0.8416032791137695 -0.6256980895996094
2.5332865715026855 -2.2697975635528564 -0.6340972185134888
4.618453025817871 2.8479626178741455 -0.9586955308914185
4.337584495544434 0.5348939299583435 -0.961703360080719
2.668306589126587 -0.8418258428573608 -0.616193413734436
2.532822608947754 -2.286172866821289 -0.6317617893218994
3.7829113006591797 5.564295768737793 -0.7024378776550293
4.564865589141846 2.791876792907715 -0.9521842002868652
4.343954086303711 0.5187541246414185 -0.9650686979293823
2.6234970092773438 -0.838778555393219 -0.6050729155540466
2.5245137214660645 -2.296325445175171 -0.6281883716583252
3.8325908184051514 5.5952630043029785 -0.718802809715271
4.583399295806885 2.7790865898132324 -0.957678496837616
4.326679229736328 0.4998486042022705 -0.960000216960907
2.6018731594085693 -0.8428902626037598 -0.5998269319534302
2.5238161087036133 -2.3126516342163086 -0.6264143586158752
3.872415065765381 5.609195232391357 -0.7296298742294312
4.57285213470459 2.7476468086242676 -0.9570060968399048
4.318694591522217 0.48212966322898865 -0.9586061239242554
2.599113702774048 -0.8530373573303223 -0.5974400043487549
2.519657850265503 -2.325887680053711 -0.6219287514686584
3.891385555267334 5.594801902770996 -0.7391461730003357
4.6029744148254395 2.7439234256744385 -0.9651616215705872
4.320347785949707 0.46552562713623047 -0.9593645930290222
2.5774741172790527 -0.8569118976593018 -0.5922244787216187
2.518718957901001 -2.342177152633667 -0.6207121014595032
3.8580691814422607 5.507847785949707 -0.7376580834388733
4.578246116638184 2.706488609313965 -0.963641345500946
4.3413615226745605 0.450933575630188 -0.9644381403923035
2.574458360671997 -0.8669012188911438 -0.5908021926879883
2.5177741050720215 -2.358565330505371 -0.6188756823539734
3.8490476608276367 5.45233154296875 -0.7403604984283447
4.583924293518066 2.6861472129821777 -0.9655320048332214
4.328728675842285 0.43206456303596497 -0.9604425430297852
2.580904006958008 -0.8796167969703674 -0.5910239815711975
2.5097386837005615 -2.36836838722229 -0.6140580773353577
4.563238620758057 2.6516051292419434 -0.9638798832893372
4.359348773956299 0.4182218015193939 -0.9676745533943176
2.656334638595581 -0.9167242646217346 -0.6075587868690491
2.5051517486572266 -2.3814585208892822 -0.6107116937637329
4.074183464050293 2.346545696258545 -0.8620608448982239
4.317000865936279 0.3974364995956421 -0.9587220549583435
2.6626479625701904 -0.9293168783187866 -0.6081954836845398
2.4762778282165527 -2.369692325592041 -0.6025011539459229
2.6076719760894775 3.6129674911499023 -0.5116049647331238
4.095043659210205 2.3386142253875732 -0.8680586218833923
4.303739070892334 0.37955614924430847 -0.9562371969223022
2.636414051055908 -0.9315322637557983 -0.6009731888771057
2.453994035720825 -2.365659236907959 -0.5942797660827637
2.6052942276000977 3.5832488536834717 -0.5141661763191223
4.08193826675415 2.3103904724121094 -0.8676262497901917
4.319592475891113 0.3642447888851166 -0.9602352976799011
2.6285102367401123 -0.9401079416275024 -0.5984610319137573
2.4210851192474365 -2.3511159420013428 -0.5841456055641174
2.6209716796875 3.57717227935791 -0.5201608538627625
4.081275939941406 2.2903051376342773 -0.8690747618675232
4.315925598144531 0.34725111722946167 -0.9599096775054932
2.615649938583374 -0.9478847980499268 -0.5949081778526306
2.6300055980682373 3.563345193862915 -0.5265357494354248
4.1105852127075195 2.286043167114258 -0.8793862462043762
4.312193393707275 0.3302910625934601 -0.9595822691917419
2.589327812194824 -0.9496096968650818 -0.5882365107536316
4.140185832977295 2.2826778888702393 -0.8856311440467834
4.308560848236084 0.31337693333625793 -0.9584991931915283
2.5908961296081543 -0.9609727263450623 -0.5868682265281677
4.1990461349487305 2.296053886413574 -0.9016907215118408
4.299826145172119 0.2961486876010895 -0.9570854306221008
2.605696439743042 -0.9778600335121155 -0.5900515913963318
4.151332855224609 5.503007411956787 -0.8463825583457947
4.470643997192383 2.4233219623565674 -0.9599371552467346
4.305969715118408 0.2799639403820038 -0.9574162364006042
2.588833808898926 -0.9818549156188965 -0.5854909420013428
4.484046459197998 2.4063403606414795 -0.967082679271698
4.311383247375488 0.26369550824165344 -0.9607609510421753
2.5895516872406006 -0.9945542812347412 -0.5850729942321777
4.461057186126709 2.374983310699463 -0.9640768766403198
4.312364101409912 0.2471390813589096 -0.9607609510421753
2.585998773574829 -1.0046008825302124 -0.5836204886436462
4.443485736846924 2.343775510787964 -0.9619628190994263
4.293952465057373 0.2295457273721695 -0.9556680917739868
2.587327480316162 -1.0160468816757202 -0.5822242498397827
4.407937049865723 2.3044135570526123 -0.9560322761535645
4.304385185241699 0.21353189647197723 -0.9585897922515869
2.5882389545440674 -1.027892827987671 -0.5817912817001343
4.398721218109131 2.278132677078247 -0.9557157158851624
4.290546894073486 0.1963333934545517 -0.9553330540657043
2.766633987426758 -1.1099367141723633 -0.6211296916007996
4.4155755043029785 2.265402317047119 -0.9610750079154968
4.319960117340088 0.18257059156894684 -0.9641106724739075
4.409825325012207 2.2420730590820312 -0.9634042382240295
4.286884307861328 0.16318689286708832 -0.9549961686134338
3.2797892093658447 -1.3451396226882935 -0.7334712743759155
4.404652118682861 2.2181994915008545 -0.9639801979064941
4.311699867248535 0.1475541591644287 -0.9611814618110657
3.315425395965576 -1.3753284215927124 -0.7407097220420837
4.390048027038574 2.1907107830047607 -0.9634661674499512
4.302478790283203 0.1307009905576706 -0.9590067863464355
3.3331785202026367 -1.397717833518982 -0.743239164352417
3.6301496028900146 4.468491077423096 -0.7814743518829346
4.384629249572754 2.1670188903808594 -0.9639904499053955
4.302741050720215 0.11567724496126175 -0.9597580432891846
3.3196167945861816 -1.405676007270813 -0.7393375039100647
3.5918760299682617 4.389977931976318 -0.7759816646575928
4.3749918937683105 2.1413931846618652 -0.9618232250213623
4.308402061462402 0.09777131676673889 -0.9593420028686523
3.6229140758514404 4.3949456214904785 -0.7883180379867554
4.373076915740967 2.1206231117248535 -0.9649760723114014
4.3584771156311035 2.0929110050201416 -0.9634829759597778
3.6449227333068848 0.05471378564834595 -0.8134925961494446
2.2852189540863037 -0.9993377327919006 -0.5060854554176331
3.1434640884399414 3.7608747482299805 -0.6906178593635559
4.36123514175415 2.074599027633667 -0.9650347232818604
3.6499710083007812 0.04204650595784187 -0.8145816326141357
2.340240716934204 -1.0331450700759888 -0.5176717042922974
3.03232741355896 3.6010048389434814 -0.6691637635231018
4.367839813232422 2.059075117111206 -0.9684061408042908
3.6354660987854004 0.027918923646211624 -0.8113145232200623
3.0854053497314453 3.639472723007202 -0.6833078861236572
4.361774921417236 2.035782814025879 -0.968817412853241
3.6355488300323486 0.013325042091310024 -0.8113145232200623
3.0574941635131836 3.577336311340332 -0.6814860701560974
4.346041679382324 2.0090737342834473 -0.9688989520072937
3.645191192626953 -0.0006362058920785785 -0.8141287565231323
3.35516095161438 -1.5283277034759521 -0.7380445003509521
3.039829969406128 3.5328807830810547 -0.6799177527427673
4.3445048332214355 1.9881526231765747 -0.968583345413208
3.6451618671417236 -0.01463269628584385 -0.8141287565231323
3.322892427444458 -1.5290625095367432 -0.7302407026290894
3.0639376640319824 3.537106513977051 -0.6885226368904114
4.355109214782715 1.9746485948562622 -0.9737501740455627
3.649968385696411 -0.027393219992518425 -0.8152186870574951
3.2919957637786865 -1.526697039604187 -0.7224674820899963
4.3348822593688965 1.9463547468185425 -0.971081554889679
3.242152214050293 -1.5187351703643799 -0.7102051377296448
3.5188488960266113 4.004012107849121 -0.798553466796875
4.3373823165893555 1.9274998903274536 -0.9725657105445862
4.298585414886475 -0.06527630239725113 -0.960170567035675
3.174560308456421 -1.50196373462677 -0.6947460174560547
3.5297601222991943 3.986863136291504 -0.8024598360061646
4.321712970733643 1.9006990194320679 -0.9708436131477356
4.288516521453857 -0.08309249579906464 -0.9579908847808838
3.1337504386901855 -1.4980806112289429 -0.6833465099334717
3.5093231201171875 3.937394142150879 -0.8023740649223328
4.305907249450684 1.874049186706543 -0.9690868258476257
4.302835941314697 -0.09839638322591782 -0.9612604975700378
3.1067276000976562 -1.4985074996948242 -0.6767146587371826
3.4965646266937256 3.894249677658081 -0.8036664724349976
4.307472229003906 1.8559818267822266 -0.9721697568893433
4.30726432800293 -0.11655113846063614 -0.9623503684997559
3.039094924926758 -1.4816091060638428 -0.6608779430389404
3.4903597831726074 3.8587939739227295 -0.8045623302459717
4.2689104080200195 1.819964051246643 -0.9652618765830994
4.2775654792785645 -0.13069143891334534 -0.9558111429214478
3.0124545097351074 -1.4810054302215576 -0.654324471950531
3.377371311187744 3.7064809799194336 -0.7816546559333801
4.284420967102051 1.8071671724319458 -0.9697331786155701
2.9631900787353516 -1.4709402322769165 -0.642448902130127
3.369511365890503 3.6720261573791504 -0.7839933633804321
4.258464813232422 1.777862310409546 -0.9674206972122192
2.9354636669158936 -1.4725347757339478 -0.6353904008865356
3.3710577487945557 3.6493444442749023 -0.7868652939796448
4.255444526672363 1.7591832876205444 -0.9661726355552673
3.208176374435425 -0.1350233554840088 -0.7165704369544983
2.8784825801849365 -1.455918550491333 -0.6211785078048706
3.3702046871185303 3.6216983795166016 -0.7906450033187866
4.257308006286621 1.7391091585159302 -0.9699622392654419
3.1881349086761475 -0.1464451551437378 -0.7122144103050232
2.8557634353637695 -1.4582247734069824 -0.615158200263977
3.3928260803222656 3.619316816329956 -0.7999398112297058
4.262881278991699 1.724047064781189 -0.9723700881004333
3.182426929473877 -0.15843059122562408 -0.7122376561164856
2.8027586936950684 -1.4441344738006592 -0.6025946736335754
3.398810863494873 3.5991714000701904 -0.8026681542396545
4.218745708465576 1.6882319450378418 -0.963370680809021
3.1820433139801025 -0.17066235840320587 -0.711125373840332
2.775777578353882 -1.4437469244003296 -0.5957173705101013
3.411203622817993 3.585874319076538 -0.8095793724060059
4.242760181427002 1.6789710521697998 -0.9707044363021851
3.1863605976104736 -0.18316641449928284 -0.7116573452949524
2.7401347160339355 -1.4386029243469238 -0.5870105624198914
3.4271485805511475 3.5762956142425537 -0.815574049949646
4.235461235046387 1.6555967330932617 -0.9707582592964172
3.180762767791748 -0.19510102272033691 -0.7105691432952881
2.7086544036865234 -1.4359750747680664 -0.5792798399925232
3.458742141723633 3.5853874683380127 -0.8274046778678894
4.227059364318848 1.6353259086608887 -0.9699999690055847
3.1994693279266357 -0.20858268439769745 -0.7149218320846558
2.6954033374786377 -1.4410256147384644 -0.5747561454772949
3.481565237045288 3.5826733112335205 -0.8350942134857178
4.21425199508667 1.61179518699646 -0.9697521924972534
2.69478178024292 -1.4534181356430054 -0.5735428333282471
3.5042006969451904 3.5796215534210205 -0.8445625305175781
4.201369285583496 1.5892412662506104 -0.9679017066955566
4.293013572692871 -0.3137526214122772 -0.9590067863464355
2.6938490867614746 -1.4662953615188599 -0.5723223686218262
3.5062904357910156 3.5555925369262695 -0.8472985029220581
4.19780969619751 1.569496750831604 -0.968142032623291
4.291610240936279 -0.33022141456604004 -0.9597580432891846
2.693115472793579 -1.4787170886993408 -0.5710947513580322
3.4941482543945312 3.517399311065674 -0.8483668565750122
4.184835910797119 1.5463573932647705 -0.967033863067627
4.304903507232666 -0.34787678718566895 -0.9630225300788879
2.696366786956787 -1.4940053224563599 -0.5707703232765198
3.5202224254608154 3.517765522003174 -0.8578208088874817
4.171907901763916 1.523399829864502 -0.9651226997375488
4.313429355621338 -0.36524149775505066 -0.9644433856010437
2.686403512954712 -1.5026110410690308 -0.5677112936973572
3.5358428955078125 3.507568359375 -0.8647556304931641
4.181527614593506 1.508741021156311 -0.970064103603363
4.29741096496582 -0.3805098533630371 -0.9611814618110657
2.6938066482543945 -1.5203607082366943 -0.568272590637207
3.5250449180603027 3.4749526977539062 -0.8656715750694275
4.181949615478516 1.4915930032730103 -0.9713230729103088
4.315525054931641 -0.39881983399391174 -0.9647743105888367
2.692920446395874 -1.532901644706726 -0.5664721727371216
3.537820339202881 3.460862636566162 -0.869990885257721
4.168741226196289 1.4688633680343628 -0.9693632125854492
4.318819046020508 -0.4158549904823303 -0.9658606648445129
2.687981128692627 -1.5425379276275635 -0.5637678503990173
3.46061372756958 3.3617758750915527 -0.855928897857666
4.141267776489258 1.4413317441940308 -0.9656922817230225
4.302454948425293 -0.43095895648002625 -0.9633560180664062
2.6820220947265625 -1.5534634590148926 -0.5621451139450073
3.5294389724731445 3.4023921489715576 -0.8758932948112488
4.13244104385376 1.4204938411712646 -0.9647542834281921
4.305789947509766 -0.4479984641075134 -0.9636878371238708
2.693368911743164 -1.5738775730133057 -0.563536524772644
3.519777536392212 3.368277072906494 -0.8765694499015808
4.132443428039551 1.4027756452560425 -0.9674850702285767
4.3088908195495605 -0.46505188941955566 -0.9647743105888367
2.6797165870666504 -1.578473687171936 -0.5595877766609192
3.462508201599121 3.2915449142456055 -0.8647497296333313
4.1141791343688965 1.3789807558059692 -0.9643461108207703
4.3120903968811035 -0.48215433955192566 -0.9651033878326416
2.6863853931427 -1.5969619750976562 -0.5600623488426208
3.4450485706329346 3.250993251800537 -0.8642397522926331
4.123120307922363 1.3659871816635132 -0.967705249786377
4.329768657684326 -0.5009713172912598 -0.9686851501464844
2.677186965942383 -1.6035327911376953 -0.5570018291473389
3.4454004764556885 3.227534055709839 -0.8673158288002014
4.109214782714844 1.3430982828140259 -0.967129111289978
4.317953109741211 -0.5164135098457336 -0.9672746658325195
2.7262022495269775 -1.6471471786499023 -0.5656436681747437
3.4518182277679443 3.2121212482452393 -0.8713506460189819
4.108913898468018 1.3271429538726807 -0.9675447940826416
4.32612943649292 -0.5342479348182678 -0.9671635627746582
3.445728302001953 3.1807401180267334 -0.8733559846878052
4.1137919425964355 1.3097147941589355 -0.9705590605735779
4.319036960601807 -0.5502169132232666 -0.9668405652046204
2.6174581050872803 -1.6096413135528564 -0.5407097339630127
3.433847665786743 3.148747444152832 -0.8727425336837769
4.10870885848999 1.2923182249069214 -0.9698692560195923
4.321929454803467 -0.5659235119819641 -0.9679244160652161
2.5203213691711426 -1.5614477396011353 -0.5195765495300293
3.4228856563568115 3.115678548812866 -0.8720663785934448
4.089864730834961 1.2691541910171509 -0.966619610786438
4.324525833129883 -0.5846988558769226 -0.9682466387748718
2.535654067993164 -1.584452509880066 -0.5207611322402954
3.404330015182495 3.0760481357574463 -0.8702664971351624
4.117213249206543 1.260330080986023 -0.9758822321891785
4.336921215057373 -0.6033406853675842 -0.9707317352294922
2.53847336769104 -1.599180817604065 -0.5203825831413269
3.389307737350464 3.0399839878082275 -0.8685123324394226
4.09368896484375 1.2359576225280762 -0.9707437753677368
4.320242881774902 -0.6179391145706177 -0.9667233228683472
3.372685432434082 3.004953145980835 -0.8690506815910339
4.0882463455200195 1.21720552444458 -0.9722528457641602
4.327330589294434 -0.6359179019927979 -0.9696494936943054
1.4563062191009521 -2.211122751235962 -0.2563360035419464
3.354093551635742 2.965364694595337 -0.8661823868751526
4.078370094299316 1.19723641872406 -0.9711450934410095
4.310708999633789 -0.6503943800926208 -0.9648811221122742
1.467811942100525 -2.245617151260376 -0.2564314305782318
3.349386215209961 2.9394021034240723 -0.8678284287452698
4.077602863311768 1.1800241470336914 -0.9729951620101929
4.337294101715088 -0.6714486479759216 -0.9705981016159058
2.486480236053467 -1.6190615892410278 -0.5061173439025879
1.416408896446228 -2.184415817260742 -0.24563884735107422
3.348350763320923 2.9168388843536377 -0.8696118593215942
4.072240829467773 1.1615453958511353 -0.9729782938957214
4.325207710266113 -0.6865934133529663 -0.9676745533943176
3.3358335494995117 2.884498357772827 -0.8700048327445984
4.057580471038818 1.1405344009399414 -0.9699710011482239
4.366077899932861 -0.7102786302566528 -0.9766115546226501
2.3639183044433594 -1.564643383026123 -0.4789653718471527
3.3530170917510986 2.877946138381958 -0.8773395419120789
4.04683256149292 1.1215252876281738 -0.9702719449996948
4.353518486022949 -0.7254050374031067 -0.9752260446548462
2.313394784927368 -1.5434260368347168 -0.46737584471702576
3.388077974319458 2.888582229614258 -0.8880413770675659
4.050395488739014 1.1073030233383179 -0.9717377424240112
