# .PCD v0.7 - Point Cloud Data file format
VERSION 0.7
FIELDS x y z
SIZE 4 4 4
TYPE F F F
COUNT 1 1 1
WIDTH 826
HEIGHT 1
VIEWPOINT 0 0 0 1 0 0 0
POINTS 826
DATA ascii
2.663665771484375 -1.3689382076263428 -0.38896268606185913
1.2020281553268433 -1.500913143157959 -0.16519027948379517
5.815186977386475 2.2649085521698 -0.9326773881912231
2.636382818222046 -1.3683228492736816 -0.3836691975593567
1.1901819705963135 -1.497873067855835 -0.16199712455272675
4.854140281677246 4.982914447784424 -0.8233494162559509
5.799532413482666 2.235527753829956 -0.9322366118431091
2.675704002380371 -1.4006086587905884 -0.3884931206703186
1.1822260618209839 -1.4980326890945435 -0.15957693755626678
4.807361602783203 4.902264595031738 -0.8211601972579956
5.770654678344727 2.198983907699585 -0.9295372366905212
4.551239490509033 -0.29511311650276184 -0.705233633518219
2.6445374488830566 -1.3966667652130127 -0.3820558190345764
1.1737741231918335 -1.4985849857330322 -0.15683478116989136
4.7757487297058105 4.8344550132751465 -0.8211506009101868
5.741508960723877 2.1615231037139893 -0.9300082921981812
4.387208938598633 -0.30062851309776306 -0.6815544366836548
1.1556203365325928 -1.4876710176467896 -0.15321992337703705
4.670292854309082 4.693172454833984 -0.8070909380912781
5.739449501037598 2.1379036903381348 -0.9306474924087524
4.159666538238525 -0.3010876476764679 -0.6441444158554077
2.9532480239868164 -1.5881662368774414 -0.42479681968688965
1.147749662399292 -1.4876959323883057 -0.15051908791065216
5.761291027069092 2.1197423934936523 -0.9371868371963501
4.178076267242432 -0.3200184404850006 -0.6471972465515137
2.9602530002593994 -1.6072862148284912 -0.4237426519393921
1.1479527950286865 -1.5003743171691895 -0.14867998659610748
3.9100637435913086 3.87203311920166 -0.6824890375137329
5.749769687652588 2.092745065689087 -0.93630450963974
4.181918144226074 -0.3342653810977936 -0.6479604244232178
2.9591057300567627 -1.620063066482544 -0.4231891632080078
1.1550973653793335 -1.520131230354309 -0.1489163190126419
3.894075870513916 3.830707550048828 -0.6832863688468933
5.714781284332275 2.056321144104004 -0.9347982406616211
4.180490970611572 -0.35031089186668396 -0.6486926674842834
2.9534058570861816 -1.6310402154922485 -0.42083385586738586
1.2096593379974365 -1.6041069030761719 -0.15423817932605743
3.905271530151367 3.8109946250915527 -0.6893327832221985
4.179114818572998 -0.3663601875305176 -0.6486926674842834
2.9598042964935303 -1.6507906913757324 -0.4203245937824249
1.287245273590088 -1.720696210861206 -0.16195420920848846
2.494117259979248 0.8758717179298401 -0.4096984565258026
4.177856922149658 -0.3816852271556854 -0.6479604244232178
2.9497272968292236 -1.6593738794326782 -0.4167558550834656
1.2780580520629883 -1.721534252166748 -0.1593332439661026
2.4877727031707764 0.8634140491485596 -0.40954574942588806
4.176360607147217 -0.3977242112159729 -0.6479604244232178
2.974555253982544 -1.6863508224487305 -0.41983985900878906
1.2783589363098145 -1.7339237928390503 -0.1578185111284256
4.026503562927246 3.846466064453125 -0.7212435007095337
2.4815196990966797 0.8505820631980896 -0.4093826115131378
4.179832458496094 -0.41425585746765137 -0.6479906439781189
2.976928472518921 -1.702833652496338 -0.4186643958091736
1.27212393283844 -1.7387737035751343 -0.15481048822402954
3.9679830074310303 3.7628438472747803 -0.7150801420211792
2.4798061847686768 0.8398505449295044 -0.4095255434513092
4.178399085998535 -0.42958447337150574 -0.6472575068473816
2.970383882522583 -1.714951992034912 -0.4156714081764221
1.277266502380371 -1.7599434852600098 -0.15358731150627136
3.9523253440856934 3.7205777168273926 -0.7155782580375671
2.482672929763794 0.830208957195282 -0.41181015968322754
4.171804428100586 -0.4451008439064026 -0.6464959979057312
2.97713565826416 -1.733430027961731 -0.41567233204841614
1.2738155126571655 -1.7687902450561523 -0.15165702998638153
3.9182167053222656 3.66147518157959 -0.7136351466178894
2.4856371879577637 0.8206024169921875 -0.41318079829216003
4.175088882446289 -0.46167171001434326 -0.6465244293212891
2.971074104309082 -1.7445130348205566 -0.41266581416130066
1.2442137002944946 -1.7411072254180908 -0.14663980901241302
3.9014551639556885 3.6203832626342773 -0.7130036950111389
2.488422155380249 0.8114193081855774 -0.4145512878894806
4.178082466125488 -0.47824856638908386 -0.648019015789032
1.226973295211792 -1.729074239730835 -0.1430523693561554
3.9141464233398438 3.605551242828369 -0.718576967716217
2.496082305908203 0.8033270239830017 -0.4162488579750061
4.176526069641113 -0.4935853183269501 -0.6465510129928589
1.8291263580322266 -1.0916765928268433 -0.25211769342422485
1.203507423400879 -1.7092453241348267 -0.13811412453651428
3.886467218399048 3.5538108348846436 -0.7176518440246582
2.493957281112671 0.7925673127174377 -0.41774871945381165
4.174488544464111 -0.5096046924591064 -0.6472850441932678
1.8249965906143188 -1.0987372398376465 -0.25137412548065186
1.1890411376953125 -1.701284646987915 -0.13495172560214996
3.875765085220337 3.5204973220825195 -0.7181706428527832
2.4965693950653076 0.7838132977485657 -0.4186621606349945
4.17261266708374 -0.5256438255310059 -0.6465510129928589
1.8168617486953735 -1.1029326915740967 -0.2493044137954712
1.202795147895813 -1.7344683408737183 -0.13464394211769104
3.8475263118743896 3.4691948890686035 -0.7170266509056091
2.4993505477905273 0.7741563320159912 -0.42003220319747925
4.175670623779297 -0.5415838360786438 -0.6465758085250854
1.8087927103042603 -1.10712730884552 -0.24650126695632935
3.830134868621826 3.4281458854675293 -0.7169259190559387
2.516052007675171 0.7692342400550842 -0.4242466688156128
4.168773651123047 -0.5569737553596497 -0.645082950592041
1.8047959804534912 -1.1137945652008057 -0.2457609623670578
3.7864956855773926 3.3641724586486816 -0.7127543687820435
2.5234997272491455 0.7609283924102783 -0.42642274498939514
4.176284313201904 -0.5743076801300049 -0.6473347544670105
1.8090851306915283 -1.1260563135147095 -0.24542447924613953
3.776449203491211 3.329387903213501 -0.7147254347801208
2.5263071060180664 0.7502451539039612 -0.42872264981269836
4.169257640838623 -0.588919460773468 -0.6465758085250854
1.7920745611190796 -1.125474214553833 -0.24223090708255768
3.7808001041412354 3.3086750507354736 -0.7168275117874146
2.5429880619049072 0.7460312843322754 -0.4311312437057495
4.177082538604736 -0.6063925623893738 -0.6458837389945984
1.796871542930603 -1.1368130445480347 -0.2418837547302246
3.7660844326019287 3.2715001106262207 -0.7179791927337646
2.5408036708831787 0.7348066568374634 -0.43217501044273376
4.179500579833984 -0.6231391429901123 -0.6473775506019592
1.7926353216171265 -1.1437948942184448 -0.24039927124977112
3.7650067806243896 3.248720169067383 -0.7219183444976807
2.571859359741211 0.7330987453460693 -0.4384131133556366
4.1675286293029785 -0.6369771361351013 -0.6451274156570435
1.801108479499817 -1.158511996269226 -0.24058932065963745
1.1919690370559692 -1.815289855003357 -0.12065373361110687
3.750105381011963 3.211958885192871 -0.7211992144584656
4.179811954498291 -0.6552885174751282 -0.6466578841209412
1.788651943206787 -1.1597895622253418 -0.23798471689224243
1.2289760112762451 -1.8866846561431885 -0.1227336972951889
3.757966995239258 3.1937594413757324 -0.7265023589134216
5.5340352058410645 1.5326437950134277 -0.9475504755973816
4.177153587341309 -0.67131507396698 -0.6473962664604187
1.788722038269043 -1.1691697835922241 -0.2366746962070465
1.2275527715682983 -1.8996880054473877 -0.12051476538181305
3.7604925632476807 3.1744890213012695 -0.7293398976325989
4.174896240234375 -0.6859102845191956 -0.6466578841209412
1.7762620449066162 -1.1703397035598755 -0.23408889770507812
3.734604835510254 3.127047061920166 -0.7279613614082336
4.182080268859863 -0.7043430805206299 -0.6466884613037109
1.767683506011963 -1.1744461059570312 -0.23280119895935059
1.439197063446045 -2.262571096420288 -0.1367780715227127
3.7444636821746826 3.1142375469207764 -0.732211709022522
2.3361806869506836 0.6185543537139893 -0.40267956256866455
4.169713497161865 -0.7187357544898987 -0.6444424986839294
1.7470149993896484 -1.169966220855713 -0.22878560423851013
1.4363248348236084 -2.2764370441436768 -0.13352932035923004
3.7513487339019775 3.0967743396759033 -0.7374119162559509
2.333561897277832 0.6082822680473328 -0.4031204879283905
4.181416034698486 -0.737296462059021 -0.6474421620368958
1.7510875463485718 -1.1820130348205566 -0.22839246690273285
1.428057074546814 -2.281822681427002 -0.13024069368839264
3.7625114917755127 3.0817739963531494 -0.7433544397354126
2.3210699558258057 0.5963813066482544 -0.4023205041885376
4.193390846252441 -0.7552656531333923 -0.6489596962928772
1.7425576448440552 -1.1860201358795166 -0.2263835370540619
1.4197436571121216 -2.287137031555176 -0.12789155542850494
3.761772632598877 3.058199882507324 -0.7453190088272095
2.318528890609741 0.5858169198036194 -0.40232744812965393
4.195432662963867 -0.7722769379615784 -0.648967981338501
1.7383610010147095 -1.1925102472305298 -0.2245439738035202
1.4039855003356934 -2.279470682144165 -0.12344183772802353
3.753018617630005 3.0283043384552 -0.7474125623703003
2.282346487045288 0.5673606991767883 -0.39651212096214294
4.192436218261719 -0.78838050365448 -0.648967981338501
1.7381972074508667 -1.2017903327941895 -0.22359833121299744
1.3983029127120972 -2.2889907360076904 -0.12039519101381302
3.7509641647338867 3.006164073944092 -0.749310314655304
2.2889668941497803 0.5605300664901733 -0.3981659710407257
4.180141448974609 -0.8019422888755798 -0.6452354192733765
1.7135093212127686 -1.194027304649353 -0.2195097655057907
1.3873801231384277 -2.2899346351623535 -0.11736725270748138
3.7385637760162354 2.9727227687835693 -0.7505257725715637
2.3049755096435547 0.5555035471916199 -0.40314802527427673
4.186623573303223 -0.819865345954895 -0.6474788784980774
1.713284969329834 -1.2032235860824585 -0.2189362496137619
1.3768775463104248 -2.2906033992767334 -0.11388320475816727
3.748711585998535 2.9584298133850098 -0.756360650062561
2.3069543838500977 0.5466164946556091 -0.4039756655693054
4.188583850860596 -0.8354412913322449 -0.6482290625572205
1.708776593208313 -1.20988130569458 -0.21747459471225739
1.368543028831482 -2.2957522869110107 -0.11061795055866241
3.7473461627960205 2.9351277351379395 -0.7581682801246643
2.3136990070343018 0.5388402938842773 -0.4056447446346283
4.185307025909424 -0.8522711396217346 -0.6474835872650146
1.6882898807525635 -1.2046902179718018 -0.21359847486019135
1.3551024198532104 -2.2922658920288086 -0.10695122182369232
3.7885258197784424 2.9450416564941406 -0.7703232169151306
2.3106706142425537 0.528789758682251 -0.40645813941955566
4.186844348907471 -0.8693403005599976 -0.6482329964637756
1.6920300722122192 -1.216742753982544 -0.2135317325592041
1.3395569324493408 -2.284132957458496 -0.10403851419687271
3.7864198684692383 2.922257423400879 -0.7729548215866089
2.3123157024383545 0.5202547907829285 -0.40811288356781006
4.183894634246826 -0.8839731216430664 -0.647486686706543
1.6715680360794067 -1.2113478183746338 -0.21005211770534515
1.3161684274673462 -2.2632205486297607 -0.0996621698141098
4.540735721588135 3.477937698364258 -0.931503176689148
2.3093457221984863 0.5102784037590027 -0.4080899953842163
4.189867973327637 -0.9028201103210449 -0.6497318148612976
1.6712818145751953 -1.2205078601837158 -0.2087523490190506
4.5645880699157715 3.469736099243164 -0.9389182329177856
2.3255934715270996 0.5045108199119568 -0.41147127747535706
4.196791172027588 -0.9196532964706421 -0.6482313275337219
1.642661213874817 -1.2093050479888916 -0.20431752502918243
4.521088123321533 3.410597324371338 -0.9355141520500183
2.3415446281433105 0.49856501817703247 -0.4165342152118683
4.188072204589844 -0.9346102476119995 -0.6497322916984558
1.6462953090667725 -1.2213099002838135 -0.20424090325832367
4.524874687194824 3.387502908706665 -0.9398041367530823
2.367321014404297 0.49499034881591797 -0.4216638207435608
3.8136038780212402 -0.8657296299934387 -0.5907297730445862
1.6259524822235107 -1.2154829502105713 -0.20119509100914001
1.2957086563110352 -2.3042118549346924 -0.08815682679414749
4.472682476043701 3.324129819869995 -0.9315463900566101
5.30714225769043 1.0884345769882202 -0.9484468698501587
3.7476303577423096 -0.8658976554870605 -0.5810211896896362
1.6375244855880737 -1.2335151433944702 -0.20137859880924225
1.2901432514190674 -2.3131773471832275 -0.0850876197218895
4.2338032722473145 3.122570037841797 -0.8869569301605225
5.305640697479248 1.0669142007827759 -0.9523077011108398
3.6864283084869385 -0.8666806221008301 -0.5727203488349915
1.6211849451065063 -1.2305463552474976 -0.19884656369686127
1.2816987037658691 -2.317966938018799 -0.08231393247842789
4.244341850280762 3.106388807296753 -0.8933834433555603
5.298835277557373 1.0472756624221802 -0.954345703125
3.6205668449401855 -0.8658802509307861 -0.5630005598068237
1.61257803440094 -1.2338011264801025 -0.19729728996753693
1.2732352018356323 -2.322723627090454 -0.07954015582799911
4.2306342124938965 3.0726075172424316 -0.8965739607810974
5.2776689529418945 1.0220518112182617 -0.9556259512901306
3.588355779647827 -0.8720932602882385 -0.5598035454750061
1.6001896858215332 -1.2336472272872925 -0.19597750902175903
1.2599669694900513 -2.3186399936676025 -0.07739774882793427
4.240910053253174 3.0812013149261475 -0.9073443412780762
5.179230690002441 1.002988576889038 -0.9482534527778625
3.606264352798462 -0.8771122097969055 -0.5705755352973938
1.6036688089370728 -1.2367757558822632 -0.19964160025119781
1.2551618814468384 -2.3097972869873047 -0.07939866930246353
4.237508773803711 3.1036596298217773 -0.9053832292556763
5.17051362991333 1.021913766860962 -0.9473689198493958
3.6476643085479736 -0.8723607659339905 -0.5792720317840576
1.6119189262390137 -1.2337429523468018 -0.202966570854187
1.2679651975631714 -2.314067840576172 -0.0833849385380745
4.384512424468994 3.2372686862945557 -0.9365027546882629
5.152079105377197 1.0388413667678833 -0.944715142250061
3.7082574367523193 -0.872495710849762 -0.5904252529144287
1.6162599325180054 -1.227697491645813 -0.20509213209152222
1.2783794403076172 -2.313870906829834 -0.08815682679414749
4.416635990142822 3.286067247390747 -0.9419739842414856
3.759108066558838 -0.8692407011985779 -0.6021239757537842
1.6245193481445312 -1.2246077060699463 -0.20808042585849762
1.2843501567840576 -2.3046813011169434 -0.09213466197252274
4.424357891082764 3.3182809352874756 -0.941364586353302
2.4180259704589844 0.5060328841209412 -0.4440515339374542
4.002912521362305 -0.9101741313934326 -0.6421051025390625
1.624838948249817 -1.2155348062515259 -0.20969676971435547
1.2776373624801636 -2.273932456970215 -0.09472961723804474
4.420555591583252 3.3408145904541016 -0.9391745924949646
2.391822576522827 0.5110160112380981 -0.4396286904811859
4.189007759094238 -0.9355865120887756 -0.6752132773399353
1.6490707397460938 -1.2242615222930908 -0.2144174873828888
4.42102575302124 3.365480899810791 -0.9387720823287964
2.3803746700286865 0.5181353092193604 -0.43700921535491943
4.177706241607666 -0.9169996380805969 -0.6743753552436829
1.6533347368240356 -1.218052864074707 -0.21692655980587006
4.432060241699219 3.400839328765869 -0.9398701190948486
2.37864351272583 0.5260260105133057 -0.43700921535491943
4.180850505828857 -0.900877058506012 -0.6766148209571838
1.6576036214828491 -1.2118501663208008 -0.21907693147659302
1.3194180727005005 -2.2899117469787598 -0.10707112401723862
2.3717668056488037 0.534935712814331 -0.4352777302265167
4.188879013061523 -0.8857899308204651 -0.6788907051086426
1.6743112802505493 -1.213781476020813 -0.22319497168064117
1.3381574153900146 -2.3019561767578125 -0.11206334084272385
3.8832638263702393 3.0252158641815186 -0.8175740838050842
2.355639934539795 0.5399463176727295 -0.4317907691001892
4.182311058044434 -0.8683990240097046 -0.6780701279640198
1.6822344064712524 -1.2110354900360107 -0.22517865896224976
1.3482482433319092 -2.301713705062866 -0.11506706476211548
3.891690969467163 3.0558652877807617 -0.8164889812469482
2.3583426475524902 0.5501053929328918 -0.4326702058315277
4.194827079772949 -0.8542096614837646 -0.6826267242431641
1.6945576667785645 -1.210502028465271 -0.2284395843744278
1.3536518812179565 -2.2925517559051514 -0.11856906116008759
3.8625192642211914 3.0537190437316895 -0.8098406791687012
2.346708059310913 0.5569010376930237 -0.4304904043674469
4.17835807800293 -0.8341600298881531 -0.6817084550857544
1.6906780004501343 -1.1983962059020996 -0.22951944172382355
1.3645036220550537 -2.291703462600708 -0.1229812353849411
3.8821887969970703 3.0935676097869873 -0.8120008111000061
2.344698429107666 0.5659428834915161 -0.4296484887599945
4.176425457000732 -0.8178682327270508 -0.6816612482070923
1.7030235528945923 -1.1977933645248413 -0.23243728280067444
1.3749865293502808 -2.2910783290863037 -0.12647610902786255
3.8481764793395996 3.089592695236206 -0.8037128448486328
2.3427541255950928 0.5745685696601868 -0.42880651354789734
4.183914661407471 -0.8026661276817322 -0.6854264140129089
1.7153507471084595 -1.1970903873443604 -0.2357373833656311
1.367768406867981 -2.2602343559265137 -0.12874655425548553
3.8145618438720703 3.085665702819824 -0.7928968667984009
2.3358986377716064 0.5824049711227417 -0.4270910322666168
4.191699504852295 -0.7874844670295715 -0.6869650483131409
1.7281432151794434 -1.1957308053970337 -0.23869125545024872
1.3763419389724731 -2.254810094833374 -0.1324351727962494
2.3431894779205322 0.5937885046005249 -0.4288378357887268
4.189349174499512 -0.7711571455001831 -0.6884004473686218
1.7359862327575684 -1.1926642656326294 -0.24146127700805664
1.386329174041748 -2.2543272972106934 -0.13638083636760712
4.387539863586426 3.603965997695923 -0.9074269533157349
2.326805591583252 0.5991539359092712 -0.4249596893787384
4.177587509155273 -0.7524193525314331 -0.686748206615448
1.731927752494812 -1.1805553436279297 -0.2425173670053482
1.3629074096679688 -2.1981446743011475 -0.13690435886383057
4.253787040710449 3.519038677215576 -0.8773593306541443
5.139911651611328 1.344596028327942 -0.9377592206001282
4.185070514678955 -0.7371877431869507 -0.6890301704406738
1.7568796873092651 -1.1877089738845825 -0.24687138199806213
1.362558126449585 -2.180548906326294 -0.13880418241024017
4.203509330749512 3.5034749507904053 -0.8647369146347046
5.158504962921143 1.3706440925598145 -0.9421047568321228
1.744508981704712 -1.1700527667999268 -0.2467586100101471
4.127024173736572 3.465440034866333 -0.8458263278007507
5.139657974243164 1.3858239650726318 -0.9367102980613708
1.7693111896514893 -1.1773089170455933 -0.25115910172462463
1.2391374111175537 -1.9510623216629028 -0.13084042072296143
4.061453819274902 3.4370579719543457 -0.8303296566009521
1.7609636783599854 -1.16246497631073 -0.2516084313392639
1.1758798360824585 -1.8372586965560913 -0.12653882801532745
3.910369873046875 3.333873987197876 -0.7964231967926025
2.590924024581909 0.7199880480766296 -0.4707745313644409
1.7654316425323486 -1.1552659273147583 -0.2534497082233429
1.1912708282470703 -1.8449527025222778 -0.1304740160703659
3.879906415939331 3.332536220550537 -0.7881311774253845
2.5881404876708984 0.729931116104126 -0.4707745313644409
1.7856788635253906 -1.1600764989852905 -0.2580651640892029
1.2187235355377197 -1.874520182609558 -0.13596826791763306
3.8265979290008545 3.312365770339966 -0.7744553685188293
2.5762133598327637 0.736771285533905 -0.46764716506004333
3.1508617401123047 -0.4815868139266968 -0.5225366353988647
1.7903707027435303 -1.1524888277053833 -0.2595517337322235
1.2617267370224 -1.9237207174301147 -0.14272457361221313
3.8085458278656006 3.3188960552215576 -0.7694161534309387
2.5640604496002197 0.7439579367637634 -0.46499595046043396
3.132897138595581 -0.4665377140045166 -0.5209596753120422
1.781407356262207 -1.1383816003799438 -0.2599506676197052
1.240496277809143 -1.8777436017990112 -0.14237819612026215
3.793144464492798 3.3300135135650635 -0.7642589211463928
2.5567994117736816 0.7515372633934021 -0.4636728763580322
1.7812232971191406 -1.1290909051895142 -0.2608128488063812
1.277345061302185 -1.9189236164093018 -0.1490696370601654
3.806849241256714 3.368015766143799 -0.7641762495040894
2.5396227836608887 0.7580597996711731 -0.46017661690711975
1.7897101640701294 -1.124424934387207 -0.26364004611968994
1.2431879043579102 -1.851454496383667 -0.1477329283952713
3.8356833457946777 3.418670177459717 -0.766973078250885
2.532475233078003 0.7655640244483948 -0.45793601870536804
1.789062738418579 -1.1157608032226562 -0.2644932270050049
1.179365634918213 -1.7438819408416748 -0.14167512953281403
3.783338785171509 3.3969802856445312 -0.7526416778564453
2.53922700881958 0.7777736783027649 -0.4587145745754242
1.7973955869674683 -1.1113946437835693 -0.2665909230709076
1.1123164892196655 -1.6324305534362793 -0.13535982370376587
3.7681779861450195 3.4072000980377197 -0.7483630180358887
2.5364508628845215 0.7875889539718628 -0.45732399821281433
1.801217794418335 -1.104652762413025 -0.26880377531051636
1.1238316297531128 -1.6364084482192993 -0.13881537318229675
3.781844139099121 3.4448349475860596 -0.7481072545051575
2.538184642791748 0.7988256812095642 -0.45770809054374695
1.8050938844680786 -1.0979458093643188 -0.2702788710594177
1.1041778326034546 -1.5952301025390625 -0.13804671168327332
3.776963949203491 3.465804100036621 -0.7450811266899109
2.535250663757324 0.808614194393158 -0.45677921175956726
1.8046166896820068 -1.0886143445968628 -0.2718515694141388
1.1809409856796265 -1.6934689283370972 -0.14980143308639526
3.7720746994018555 3.486870050430298 -0.7411407828330994
2.5231175422668457 0.8149448037147522 -0.4536992311477661
2.8849573135375977 -0.34094661474227905 -0.4835302531719208
1.8213863372802734 -1.0892139673233032 -0.27525216341018677
3.775456190109253 3.5132853984832764 -0.7394965291023254
2.534248113632202 0.82929927110672 -0.4548330307006836
2.8760786056518555 -0.3297218680381775 -0.4834042489528656
3.7656824588775635 3.5325024127960205 -0.7329975962638855
2.5031979084014893 0.8297927379608154 -0.4484078884124756
2.962031364440918 -1.7405941486358643 -0.45047444105148315
3.7752935886383057 3.5663750171661377 -0.7335887551307678
2.9505503177642822 -1.720020055770874 -0.45145103335380554
1.0826696157455444 -1.5055848360061646 -0.14366839826107025
3.773512125015259 3.590955972671509 -0.7302322387695312
5.209103107452393 1.770280361175537 -0.9315298795700073
2.952728271484375 -1.7054457664489746 -0.4543668329715729
1.0944234132766724 -1.5091122388839722 -0.14736923575401306
3.775175094604492 3.6189982891082764 -0.727532684803009
5.211898326873779 1.7935831546783447 -0.9312752485275269
2.9538612365722656 -1.6930618286132812 -0.4554891586303711
1.1019906997680664 -1.5095454454421997 -0.15004678070545197
3.7802460193634033 3.650541305541992 -0.7254746556282043
5.24299955368042 1.8258057832717896 -0.9350323677062988
2.788236618041992 -0.26503899693489075 -0.4702017605304718
2.9600629806518555 -1.6815499067306519 -0.45786595344543457
1.113328456878662 -1.5133975744247437 -0.152814581990242
3.7580959796905518 3.653312921524048 -0.717020571231842
5.227753639221191 1.8409826755523682 -0.9304696917533875
2.779242515563965 -0.2543981969356537 -0.46903321146965027
2.961470127105713 -1.6680216789245605 -0.4607590436935425
1.1187398433685303 -1.5091339349746704 -0.15543773770332336
3.7663650512695312 3.6882975101470947 -0.7164868712425232
5.225099086761475 1.8646855354309082 -0.928392767906189
2.7654240131378174 -0.24194324016571045 -0.46703165769577026
2.9499800205230713 -1.6473369598388672 -0.4604313373565674
1.1271474361419678 -1.508884072303772 -0.1578224152326584
3.7844505310058594 3.734581708908081 -0.71697998046875
5.25148868560791 1.8947947025299072 -0.9312463998794556
2.9560723304748535 -1.6358808279037476 -0.462200403213501
1.1382646560668945 -1.5127243995666504 -0.161300927400589
4.045413494110107 4.021478652954102 -0.7631266713142395
5.249599456787109 1.9158875942230225 -0.9291431903839111
2.948594570159912 -1.6176544427871704 -0.4636894762516022
1.1496835947036743 -1.5163002014160156 -0.16480696201324463
4.097754001617432 4.103479385375977 -0.7696515321731567
5.27042293548584 1.946452021598816 -0.9311218857765198
2.7185494899749756 -0.20727196335792542 -0.4601638913154602
2.9150612354278564 -1.5853852033615112 -0.45986008644104004
1.1551457643508911 -1.5119613409042358 -0.16646747291088104
4.091671943664551 4.124654769897461 -0.7648833990097046
5.282195091247559 1.9728304147720337 -0.9314396381378174
2.7045390605926514 -0.19623619318008423 -0.4576675295829773
1.148402214050293 -1.4917691946029663 -0.16702450811862946
4.129267692565918 4.193180561065674 -0.7685105800628662
5.265503883361816 1.9896680116653442 -0.9288274645805359
2.6951966285705566 -0.1851578801870346 -0.45741790533065796
2.659817934036255 -1.420807123184204 -0.4227294921875
1.1565098762512207 -1.491500973701477 -0.17010177671909332
4.142161846160889 4.237226963043213 -0.7674853205680847
5.286231994628906 2.0207302570343018 -0.9287734031677246
2.708569049835205 -1.4341133832931519 -0.4312756657600403
1.1925143003463745 -1.5263487100601196 -0.17661842703819275
4.085716724395752 4.210246562957764 -0.7536351084709167
5.279092311859131 2.040208578109741 -0.9267978668212891
2.6741983890533447 -1.4027950763702393 -0.4281676709651947
1.2164242267608643 -1.5452444553375244 -0.1820886731147766
5.294651508331299 2.0696229934692383 -0.9278615713119507
2.6132428646087646 -1.3586294651031494 -0.4191811680793762
1.231200933456421 -1.5522756576538086 -0.18623818457126617
5.310064315795898 2.0991876125335693 -0.9288991093635559
5.601986885070801 -0.2994705140590668 -0.9508724808692932
2.6841840744018555 -1.3824455738067627 -0.4318567216396332
1.239867091178894 -1.5514878034591675 -0.18878601491451263
5.339451313018799 2.1334664821624756 -0.932311475276947
5.568630218505859 -0.2762485444545746 -0.9450234770774841
2.6228415966033936 -1.3387118577957153 -0.42329317331314087
1.245108723640442 -1.5469435453414917 -0.1915588676929474
4.320030212402344 4.581099987030029 -0.7809544801712036
5.345401287078857 2.159682273864746 -0.9316936731338501
5.6139702796936035 -0.2568926215171814 -0.9525436162948608
2.7024683952331543 -1.366891622543335 -0.43803030252456665
1.238105297088623 -1.5267521142959595 -0.19169701635837555
5.319769382476807 2.1720409393310547 -0.9244917035102844
5.59512996673584 -0.23254893720149994 -0.9501787424087524
2.641131639480591 -1.3231568336486816 -0.4288410246372223
1.268729329109192 -1.552847146987915 -0.1980295032262802
5.339217662811279 2.2039380073547363 -0.9262328147888184
5.610315322875977 -0.21454596519470215 -0.9546477794647217
2.6678531169891357 -1.3243337869644165 -0.4345121681690216
1.2900673151016235 -1.5672047138214111 -0.202966570854187
5.34938907623291 2.23221492767334 -0.926364541053772
5.581540584564209 -0.19198568165302277 -0.9496189951896667
2.66827392578125 -1.3117969036102295 -0.43534722924232483
1.289292335510254 -1.5546156167984009 -0.20443929731845856
3.4266746044158936 3.742180824279785 -0.6050442457199097
5.355416297912598 2.2578117847442627 -0.9246745109558105
5.58716344833374 -0.17070327699184418 -0.9504571557044983
2.632765293121338 -1.282379388809204 -0.43087249994277954
1.3139792680740356 -1.572616696357727 -0.20960670709609985
3.401235818862915 3.739220142364502 -0.5982652902603149
5.357035160064697 2.280550003051758 -0.9231973886489868
5.587777614593506 -0.1492488980293274 -0.9504571557044983
5.371109962463379 2.312054395675659 -0.9230303764343262
5.593214988708496 -0.12888121604919434 -0.9512951970100403
2.6373071670532227 -1.260191798210144 -0.43422624468803406
5.367164134979248 2.3348233699798584 -0.9207453727722168
5.598264217376709 -0.10749215632677078 -0.954088032245636
2.6685335636138916 -1.262549877166748 -0.44172635674476624
1.591972827911377 -1.8639607429504395 -0.2598018944263458
5.382035732269287 2.3636691570281982 -0.9215527176856995
5.588778972625732 -0.08584423363208771 -0.9524083137512207
2.6729328632354736 -1.2526623010635376 -0.4432719945907593
1.614798665046692 -1.8767138719558716 -0.2654617726802826
5.4145660400390625 2.4016668796539307 -0.9243874549865723
5.584138870239258 -0.06432750821113586 -0.9515684843063354
2.7044222354888916 -1.254777193069458 -0.44928810000419617
1.6312202215194702 -1.8818044662475586 -0.27010372281074524
5.428157806396484 2.433819532394409 -0.9230513572692871
5.584691047668457 -0.04093865677714348 -0.9496189951896667
2.6732091903686523 -1.227278470993042 -0.4453810155391693
1.6411890983581543 -1.8793429136276245 -0.273255854845047
5.419922351837158 2.452885150909424 -0.9209747314453125
5.5844645500183105 -0.022417597472667694 -0.9515684843063354
2.6362791061401367 -1.200310468673706 -0.4406664967536926
1.650471568107605 -1.8773703575134277 -0.27685436606407166
5.451349258422852 2.492370843887329 -0.9247207641601562
5.57465124130249 -0.0009729601442813873 -0.9498887062072754
2.7125442028045654 -1.2230513095855713 -0.45425641536712646
1.6637372970581055 -1.8785300254821777 -0.28058311343193054
3.6911888122558594 4.298985958099365 -0.6195521950721741
5.466076850891113 2.521052837371826 -0.9243302345275879
5.574786186218262 0.018486758694052696 -0.9489156603813171
2.644719362258911 -1.1802713871002197 -0.4442051351070404
1.6769973039627075 -1.8795769214630127 -0.28477203845977783
3.614698886871338 4.241253852844238 -0.6014460921287537
5.465602397918701 2.5474910736083984 -0.920586109161377
5.569730758666992 0.041801147162914276 -0.9480767250061035
2.6718273162841797 -1.1795305013656616 -0.4495246112346649
1.677650809288025 -1.8651829957962036 -0.2867138087749481
3.589834451675415 4.243486404418945 -0.5949862599372864
5.479331970214844 2.577209949493408 -0.9222455024719238
5.535059928894043 0.05989744886755943 -0.9422036409378052
2.6348228454589844 -1.1522213220596313 -0.4451887607574463
1.6969257593154907 -1.8740758895874023 -0.2920737862586975
3.662574052810669 4.358702659606934 -0.6024002432823181
5.5056986808776855 2.615475654602051 -0.924013078212738
5.549574375152588 0.08136683702468872 -0.9447206258773804
2.7748355865478516 -1.201353669166565 -0.46971994638442993
1.7136167287826538 -1.8786242008209229 -0.2964581847190857
3.707493543624878 4.4451375007629395 -0.6063351631164551
5.509883880615234 2.642259120941162 -0.9230619072914124
5.54412841796875 0.10258079320192337 -0.9448495507240295
2.642965793609619 -1.1322306394577026 -0.448199987411499
1.7165584564208984 -1.8687059879302979 -0.2989794611930847
3.7423908710479736 4.520559310913086 -0.6075002551078796
5.536166667938232 2.6810574531555176 -0.9225953221321106
5.544023513793945 0.12387529015541077 -0.942913830280304
2.669621467590332 -1.1320874691009521 -0.45356887578964233
1.7336620092391968 -1.8728402853012085 -0.30296197533607483
3.603938579559326 4.384385108947754 -0.5794979333877563
5.562423229217529 2.7189865112304688 -0.9242062568664551
5.538578987121582 0.14503279328346252 -0.9420756697654724
2.6418445110321045 -1.1083595752716064 -0.44966018199920654
1.7368751764297485 -1.8625705242156982 -0.30548420548439026
3.588226318359375 4.3980326652526855 -0.5735542178153992
5.575029373168945 2.7505099773406982 -0.9246423244476318
5.547970294952393 0.1675674319267273 -0.9427831768989563
2.682746410369873 -1.112327218055725 -0.45738309621810913
1.7645169496536255 -1.877049207687378 -0.31175512075424194
3.555204153060913 4.387179374694824 -0.5646251440048218
5.539116382598877 2.7568747997283936 -0.918069064617157
5.537169933319092 0.1865893304347992 -0.9430426359176636
2.6769137382507324 -1.0995200872421265 -0.4583529531955719
1.7667312622070312 -1.8676128387451172 -0.31429553031921387
3.5270559787750244 4.385205268859863 -0.5557602047920227
5.586314678192139 2.8084022998809814 -0.921062171459198
5.546757221221924 0.20823749899864197 -0.9418144822120667
2.6534435749053955 -1.077991247177124 -0.45515960454940796
1.7907817363739014 -1.878535509109497 -0.3200473189353943
3.495798110961914 4.379110813140869 -0.5474358201026917
5.594412326812744 2.836979866027832 -0.9217873811721802
5.54558801651001 0.2295203059911728 -0.943751871585846
2.6388301849365234 -1.060802936553955 -0.45350977778434753
1.797055959701538 -1.8719896078109741 -0.32321786880493164
2.2067654132843018 2.785243272781372 -0.34278956055641174
5.609971046447754 2.8732385635375977 -0.9217491745948792
5.559648036956787 0.25051745772361755 -0.9452950954437256
2.64717698097229 -1.052369475364685 -0.4562860131263733
1.800180435180664 -1.8615388870239258 -0.32576385140419006
2.2004008293151855 2.797214984893799 -0.3383007347583771
5.631392478942871 2.9090681076049805 -0.9212827682495117
5.568491458892822 0.2723446786403656 -0.9469696283340454
2.7568013668060303 -1.0837103128433228 -0.47499120235443115
1.8278470039367676 -1.8756822347640991 -0.33225107192993164
3.412658214569092 4.371147155761719 -0.5212796926498413
5.65636682510376 2.9482834339141846 -0.9225834012031555
5.557724952697754 0.2932133972644806 -0.9443237781524658
1.8379390239715576 -1.8722602128982544 -0.3356280028820038
3.3909027576446533 4.376255512237549 -0.5135804414749146
5.684089660644531 2.9930779933929443 -0.9234194159507751
5.566400527954102 0.3151085078716278 -0.9459965825080872
1.8549593687057495 -1.8757960796356201 -0.34075459837913513
3.367642402648926 4.376132011413574 -0.5054489970207214
5.683303356170654 3.0167784690856934 -0.9214733839035034
5.5456318855285645 0.33529946208000183 -0.9416812658309937
1.8615691661834717 -1.868730902671814 -0.3435170352458954
5.672773361206055 3.037891387939453 -0.9169811010360718
5.588807106018066 0.3584735095500946 -0.9482239484786987
2.8687517642974854 -1.078292965888977 -0.4985707700252533
1.8751301765441895 -1.8685963153839111 -0.34804290533065796
3.3068361282348633 4.3613362312316895 -0.48847416043281555
5.692114353179932 3.0764307975769043 -0.9174018502235413
5.5578789710998535 0.3779236078262329 -0.9432157278060913
2.8448710441589355 -1.0568677186965942 -0.49534279108047485
1.8923215866088867 -1.8719545602798462 -0.35232117772102356
3.2911853790283203 4.373900413513184 -0.48178696632385254
5.6900553703308105 3.10231876373291 -0.9142814874649048
5.56146764755249 0.39962664246559143 -0.9430772066116333
2.8297927379608154 -1.03947913646698 -0.49475201964378357
1.898861289024353 -1.8647032976150513 -0.355572909116745
3.2293038368225098 4.321414947509766 -0.468182235956192
5.722041130065918 3.148320436477661 -0.9167067408561707
5.579720973968506 0.4224794805049896 -0.9454359412193298
2.9820055961608887 -1.0824151039123535 -0.5217711329460144
1.919653296470642 -1.871349811553955 -0.3605611026287079
3.2004520893096924 4.318853855133057 -0.45894792675971985
5.754459857940674 3.1936888694763184 -0.9179137945175171
5.558640003204346 0.4413793683052063 -0.9411308169364929
3.0369625091552734 -1.0891844034194946 -0.5323866605758667
1.9333021640777588 -1.870884656906128 -0.36518120765686035
3.1783368587493896 4.31729793548584 -0.4511224925518036
5.782307147979736 3.236921787261963 -0.9183474779129028
5.581470966339111 0.464765340089798 -0.9452914595603943
2.970930814743042 -1.0532290935516357 -0.521826446056366
1.9362971782684326 -1.8600884675979614 -0.36732056736946106
3.1480259895324707 4.309117317199707 -0.4443693459033966
5.817691802978516 3.2861320972442627 -0.9223990440368652
5.594544410705566 0.4874914884567261 -0.9468077421188354
2.979436159133911 -1.0433838367462158 -0.5237450003623962
1.9571131467819214 -1.8663408756256104 -0.37333571910858154
3.123797655105591 4.309020519256592 -0.4356938600540161
5.83227014541626 3.322622060775757 -0.9194729328155518
5.5682454109191895 0.5067499876022339 -0.94167560338974
2.983160972595215 -1.031846046447754 -0.5253978967666626
1.9783681631088257 -1.8721582889556885 -0.37892329692840576
5.842085838317871 3.356635570526123 -0.9181622266769409
5.571422100067139 0.5276355743408203 -0.9415291547775269
2.9774155616760254 -1.017655849456787 -0.5248544216156006
1.9885838031768799 -1.8680577278137207 -0.3819933235645294
5.872573375701904 3.40421199798584 -0.9201748371124268
5.598961353302002 0.5519428849220276 -0.9455245733261108
2.9716954231262207 -1.0029739141464233 -0.5248513221740723
2.0095577239990234 -1.8739428520202637 -0.38812369108200073
5.844691276550293 3.4139935970306396 -0.9127629399299622
5.592258930206299 0.5709993839263916 -0.9437147974967957
2.984532117843628 -0.9945576190948486 -0.528698205947876
2.01611328125 -1.8662879467010498 -0.3910009264945984
5.875385284423828 3.4608662128448486 -0.9146846532821655
5.585285186767578 0.5919654965400696 -0.9419066905975342
2.9786152839660645 -0.980471134185791 -0.5281354784965515
2.0372657775878906 -1.8720500469207764 -0.39623352885246277
5.9616289138793945 3.541163444519043 -0.9215028882026672
5.587928771972656 0.6149388551712036 -0.9417524933815002
2.986783504486084 -0.970464825630188 -0.5306103229522705
2.062086820602417 -1.880964994430542 -0.4027007520198822
5.940033912658691 3.55926251411438 -0.9153513312339783
5.580790042877197 0.6358506679534912 -0.9399460554122925
2.9809226989746094 -0.9559218883514404 -0.5300371646881104
2.0762643814086914 -1.8793425559997559 -0.40755051374435425
5.982653617858887 3.614666223526001 -0.9189897179603577
5.578699588775635 0.6553465127944946 -0.9389657378196716
2.9841411113739014 -0.9449058771133423 -0.531676173210144
2.0865533351898193 -1.8747882843017578 -0.4107186198234558
2.271923780441284 3.328019380569458 -0.2902562618255615
5.9742817878723145 3.6395649909973145 -0.9135370254516602
5.590992450714111 0.6785646677017212 -0.940455973148346
2.9734551906585693 -0.9289754629135132 -0.5302517414093018
2.0967259407043457 -1.8700850009918213 -0.4148757755756378
2.277275562286377 3.360994338989258 -0.287451833486557
5.990375995635986 3.6809818744659424 -0.9131607413291931
5.5935235023498535 0.6996845602989197 -0.9402955770492554
2.9766459465026855 -0.9174422025680542 -0.5324264168739319
2.4822185039520264 3.6925387382507324 -0.30878427624702454
6.066044330596924 3.758175849914551 -0.9204573631286621
5.596013069152832 0.7218299508094788 -0.9391487240791321
2.975431442260742 -0.9045724272727966 -0.5315839648246765
1.5006152391433716 -1.3187867403030396 -0.29892370104789734
2.4285998344421387 3.638779640197754 -0.29901057481765747
6.056979179382324 3.783350944519043 -0.9161115884780884
5.6031413078308105 0.7446327805519104 -0.9398041367530823
2.968841552734375 -0.8906951546669006 -0.5326042175292969
1.4085099697113037 -1.2282886505126953 -0.28196945786476135
6.0816545486450195 3.829821825027466 -0.9143114686012268
5.610367774963379 0.7685247659683228 -0.9384793043136597
2.9675142765045166 -0.8778911828994751 -0.5317574143409729
1.3530141115188599 -1.1711910963058472 -0.2715959846973419
6.101074695587158 3.874847888946533 -0.9130526185035706
5.636845111846924 0.7942135334014893 -0.9423907995223999
3.0416407585144043 -0.8871334195137024 -0.5455646514892578
1.3796476125717163 -1.1854279041290283 -0.2773675322532654
6.154215335845947 3.940326690673828 -0.9179778099060059
5.634363651275635 0.813931941986084 -0.9404036402702332
3.0874598026275635 -0.8876480460166931 -0.5543223023414612
1.3952122926712036 -1.1895197629928589 -0.2818688750267029
6.177920341491699 3.9875051975250244 -0.9171702861785889
5.606959819793701 0.8319639563560486 -0.9353398084640503
3.142646551132202 -0.8910568356513977 -0.564814567565918
1.4031463861465454 -1.1874308586120605 -0.28423285484313965
6.202639102935791 4.032660007476807 -0.9175754189491272
5.628420829772949 0.8562433123588562 -0.9384164214134216
3.1836209297180176 -0.8894819021224976 -0.573937714099884
1.4185707569122314 -1.1915884017944336 -0.28878867626190186
5.625108242034912 0.8798626065254211 -0.9364290833473206
3.229661703109741 -0.888990581035614 -0.5822204947471619
1.4303224086761475 -1.192545771598816 -0.2919541001319885
5.63677978515625 0.9018567800521851 -0.9378671646118164
3.2707889080047607 -0.8868149518966675 -0.5908446311950684
1.4537218809127808 -1.2026233673095703 -0.29747274518013
4.370594501495361 2.9115190505981445 -0.6364404559135437
5.668006420135498 0.9281715750694275 -0.9405341744422913
3.3357796669006348 -0.8913239240646362 -0.6026114821434021
1.465551733970642 -1.2033895254135132 -0.3006851375102997
4.346970081329346 2.9210426807403564 -0.6300657391548157
5.64946985244751 0.9494521021842957 -0.9381101727485657
3.4055540561676025 -0.895971953868866 -0.6164904236793518
1.4696667194366455 -1.1977769136428833 -0.3030017018318176
5.656332492828369 0.9709193110466003 -0.9367213845252991
3.4185047149658203 -0.8853586316108704 -0.6182149052619934
1.477928876876831 -1.1950957775115967 -0.30511775612831116
5.687082290649414 0.9976696968078613 -0.940343976020813
3.4980249404907227 -0.8916353583335876 -0.6332706212997437
1.4897902011871338 -1.1956830024719238 -0.308369904756546
6.506411075592041 4.473404884338379 -0.9261543154716492
5.698105812072754 1.0221712589263916 -0.9407344460487366
3.548818349838257 -0.8907431364059448 -0.6431872844696045
1.4938669204711914 -1.1899789571762085 -0.3107035160064697
6.478386878967285 4.489194393157959 -0.9175289869308472
5.708863258361816 1.046742558479309 -0.9421273469924927
3.618922710418701 -0.8935822248458862 -0.6566077470779419
1.4943403005599976 -1.1810060739517212 -0.3115629553794861
6.429052352905273 4.491645336151123 -0.9074288010597229
2.372495651245117 0.4440004825592041 -0.3900669813156128
3.6747372150421143 -0.8924077749252319 -0.6674690246582031
1.4984444379806519 -1.1753528118133545 -0.3132249712944031
6.547484874725342 4.610190391540527 -0.916610836982727
2.3465983867645264 0.4484865963459015 -0.3856615722179413
3.7066433429718018 -0.8850982189178467 -0.6740139126777649
1.5066231489181519 -1.1724518537521362 -0.31570252776145935
6.555503845214844 4.651869773864746 -0.9130082130432129
2.335301160812378 0.45562875270843506 -0.38323745131492615
3.728957414627075 -0.8753056526184082 -0.6788341999053955
1.526261806488037 -1.1787784099578857 -0.3209852874279022
6.623925685882568 4.737020969390869 -0.9177519083023071
2.3337464332580566 0.46421104669570923 -0.3824068605899811
3.756009578704834 -0.8671431541442871 -0.6838697195053101
1.5305984020233154 -1.1727726459503174 -0.3223315179347992
6.671795845031738 4.808311462402344 -0.9180995225906372
2.3273043632507324 0.4722265303134918 -0.3803701400756836
3.7401070594787598 -0.8483586311340332 -0.6803761124610901
1.5425119400024414 -1.1729532480239868 -0.3256714642047882
6.7030253410339355 4.868245601654053 -0.9175273180007935
2.3207685947418213 0.48018568754196167 -0.37875211238861084
3.73829984664917 -0.8328692317008972 -0.6808397173881531
1.5428411960601807 -1.1638813018798828 -0.3265294134616852
4.825016498565674 3.5313785076141357 -0.6548342704772949
2.314419746398926 0.4877247214317322 -0.37631189823150635
3.7461628913879395 -0.8195356726646423 -0.6823840737342834
1.5587060451507568 -1.16690993309021 -0.3307276666164398
4.732490539550781 3.490368127822876 -0.6388161778450012
2.317486047744751 0.4976721704006195 -0.3762701153755188
3.7540950775146484 -0.8061790466308594 -0.6832600235939026
1.5629429817199707 -1.1607439517974854 -0.3324267268180847
4.728180408477783 3.5140178203582764 -0.6337274312973022
2.3110780715942383 0.5051642656326294 -0.3738348186016083
3.7424800395965576 -0.7886642217636108 -0.6819672584533691
1.5709197521209717 -1.1577587127685547 -0.3349713981151581
2.1411845684051514 3.851693868637085 -0.16698284447193146
4.711730480194092 3.5286741256713867 -0.6280559301376343
2.309248685836792 0.5140627026557922 -0.3730090260505676
3.7645087242126465 -0.778907060623169 -0.6861489415168762
1.5831198692321777 -1.1573960781097412 -0.33803239464759827
2.132662296295166 3.8680965900421143 -0.16119427978992462
4.712522506713867 3.553719997406006 -0.6224367618560791
1.5871119499206543 -1.1514122486114502 -0.33974361419677734
2.116868495941162 3.8713502883911133 -0.15408127009868622
4.696022987365723 3.568352222442627 -0.6157363653182983
1.9927676916122437 0.4593340754508972 -0.32060742378234863
1.6073216199874878 -1.1566801071166992 -0.34454068541526794
2.112291097640991 3.896841287612915 -0.14859046041965485
1.5993778705596924 -1.1420891284942627 -0.34299856424331665
2.098738670349121 3.8702268600463867 -0.1437433511018753
4.6728692054748535 3.57655668258667 -0.5998021364212036
1.603878378868103 -1.1448801755905151 -0.34179481863975525
2.1176328659057617 3.871143102645874 -0.14869050681591034
4.693617343902588 3.565232276916504 -0.6039023995399475
3.8152451515197754 -0.758899450302124 -0.6859102845191956
1.5960570573806763 -1.1481510400772095 -0.33819541335105896
2.1334567070007324 3.867940902709961 -0.15425577759742737
4.698990345001221 3.5409433841705322 -0.6069909334182739
2.2987797260284424 0.5205825567245483 -0.3644598722457886
3.7881574630737305 -0.7693324089050293 -0.6808944344520569
1.5917210578918457 -1.1547560691833496 -0.3361363112926483
2.174262285232544 3.9079830646514893 -0.16085851192474365
4.707698822021484 3.5205271244049072 -0.6095559000968933
2.3152318000793457 0.5149705410003662 -0.366752028465271
3.8148081302642822 -0.7900087833404541 -0.6820194721221924
1.5796476602554321 -1.1552807092666626 -0.33206072449684143
4.700174808502197 3.4881129264831543 -0.6120854020118713
2.3075368404388428 0.5039682388305664 -0.3652239143848419
3.754263401031494 -0.7925161719322205 -0.6696638464927673
1.563774824142456 -1.1524930000305176 -0.3275173306465149
4.736518383026123 3.48823618888855 -0.6203392148017883
2.3237998485565186 0.4986037611961365 -0.36793094873428345
3.9296014308929443 -0.8453034162521362 -0.7000676989555359
1.5637736320495605 -1.1613608598709106 -0.3263089656829834
2.325697183609009 0.4896773397922516 -0.36793094873428345
4.003830909729004 -0.8766371011734009 -0.7116485238075256
1.5556724071502686 -1.1646387577056885 -0.3231089115142822
6.927695274353027 5.022189617156982 -0.9114155173301697
2.337238311767578 0.48274263739585876 -0.369460791349411
4.111522197723389 -0.9167739748954773 -0.7283808588981628
1.555600881576538 -1.1735068559646606 -0.32188859581947327
6.943662643432617 4.998722076416016 -0.9188822507858276
2.3388655185699463 0.47414737939834595 -0.37029385566711426
4.166082382202148 -0.9442170858383179 -0.7378581762313843
1.544021725654602 -1.1728260517120361 -0.31890520453453064
6.882099628448486 4.912579536437988 -0.9155830144882202
2.33569598197937 0.4641750156879425 -0.3703584372997284
3.8070781230926514 -0.8796331882476807 -0.6735167503356934
1.547237753868103 -1.1855220794677734 -0.3181469738483429
6.950546741485596 4.926726818084717 -0.928528368473053
2.3519458770751953 0.4580239951610565 -0.3730818033218384
3.7513608932495117 -0.8819462656974792 -0.6614839434623718
1.5391947031021118 -1.188338041305542 -0.3156447112560272
6.93536901473999 4.877876281738281 -0.93159419298172
2.3828048706054688 0.454544335603714 -0.37769725918769836
3.6766252517700195 -0.8772519826889038 -0.6481359601020813
1.5199170112609863 -1.181519865989685 -0.3104243874549866
6.880279064178467 4.799749374389648 -0.926157534122467
2.4038801193237305 0.44943967461586 -0.38077419996261597
3.6206753253936768 -0.8799480199813843 -0.6362395286560059
1.5152517557144165 -1.1881091594696045 -0.30807217955589294
6.835867404937744 4.731614112854004 -0.9251828789710999
5.9433417320251465 1.0875908136367798 -0.9418360590934753
3.564849853515625 -0.8808907270431519 -0.6257003545761108
1.5034314393997192 -1.1877646446228027 -0.3041516840457916
5.95201301574707 1.0655746459960938 -0.9447169303894043
3.5188345909118652 -0.8838701844215393 -0.6156087517738342
1.4993164539337158 -1.1934648752212524 -0.3021450936794281
5.980045318603516 1.0479875802993774 -0.9496356844902039
3.4536805152893066 -0.8809741139411926 -0.6034911274909973
1.4912837743759155 -1.196026086807251 -0.29969823360443115
4.333845138549805 2.929823160171509 -0.5951018929481506
5.949616432189941 1.0191242694854736 -0.9463339447975159
3.4122960567474365 -0.8843862414360046 -0.5955830216407776
1.479198932647705 -1.1956959962844849 -0.2964896857738495
5.987425327301025 1.0019513368606567 -0.9528144598007202
3.342423677444458 -0.8799867033958435 -0.5821115970611572
1.4750864505767822 -1.2013373374938965 -0.294165700674057
6.654528617858887 4.4262824058532715 -0.9204848408699036
