# .PCD v0.7 - Point Cloud Data file format
VERSION 0.7
FIELDS x y z
SIZE 4 4 4
TYPE F F F
COUNT 1 1 1
WIDTH 819
HEIGHT 1
VIEWPOINT 0 0 0 1 0 0 0
POINTS 819
DATA ascii
0.6016637086868286 0.776779294013977 -0.06956758350133896
1.1952580213546753 0.6304546594619751 -0.1532488316297531
1.7903157472610474 0.10699150711297989 -0.2437671571969986
4.270216941833496 -1.6161361932754517 -0.5994793772697449
2.5191633701324463 -2.5147705078125 -0.38228920102119446
0.607991099357605 0.7909193634986877 -0.06923414021730423
1.188693881034851 0.6325721144676208 -0.1512754261493683
1.7899963855743408 0.11355800181627274 -0.2431410700082779
4.303672790527344 -1.6107896566390991 -0.605790913105011
2.5104711055755615 -2.4877893924713135 -0.3827039897441864
1.2080107927322388 0.6493593454360962 -0.15310904383659363
1.784561276435852 0.12009470909833908 -0.2427816092967987
4.33287239074707 -1.6027781963348389 -0.6106710433959961
2.498025417327881 -2.4573752880096436 -0.3831441402435303
0.605414092540741 0.7993403673171997 -0.06748034060001373
1.7792092561721802 0.1262868493795395 -0.24179776012897491
4.347726345062256 -1.590181589126587 -0.6144055724143982
2.4960122108459473 -2.437457799911499 -0.3857763409614563
0.6025294065475464 0.8016193509101868 -0.06625522673130035
1.7639302015304565 0.13201139867305756 -0.2394740730524063
4.372243881225586 -1.580141305923462 -0.6186597347259521
2.486846685409546 -2.41076397895813 -0.3860512971878052
0.6148390769958496 0.8236691951751709 -0.06664766371250153
1.2229523658752441 0.6745491027832031 -0.1529579609632492
1.7683498859405518 0.13917216658592224 -0.24014486372470856
4.387033939361572 -1.567331075668335 -0.6224181056022644
2.4775209426879883 -2.384171724319458 -0.38628262281417847
0.6207677721977234 0.8380014896392822 -0.06652620434761047
1.1554100513458252 0.6428288817405701 -0.14386990666389465
1.7679531574249268 0.14566285908222198 -0.23921605944633484
4.411507606506348 -1.556999683380127 -0.626699686050415
2.4755842685699463 -2.3640670776367188 -0.3881928324699402
0.6236512064933777 0.8483774662017822 -0.06587645411491394
1.1620092391967773 0.6515559554100037 -0.14425410330295563
1.8069720268249512 0.155229851603508 -0.24424512684345245
2.4803802967071533 -2.3513259887695312 -0.39061209559440613
0.6089655756950378 0.8344882130622864 -0.06336554139852524
1.2373698949813843 0.7003553509712219 -0.15270210802555084
2.4669291973114014 -2.3214669227600098 -0.39134445786476135
0.5974475741386414 0.8244323134422302 -0.0613810271024704
1.2390812635421753 0.7076195478439331 -0.15223988890647888
3.5739588737487793 -1.2166748046875 -0.5124642252922058
2.449765682220459 -2.2884435653686523 -0.39025336503982544
0.5857231020927429 0.8145198225975037 -0.05925270915031433
1.19779372215271 0.689875066280365 -0.1465008705854416
2.2292191982269287 0.21779125928878784 -0.30124515295028687
3.6160032749176025 -1.2155145406723022 -0.5191760659217834
2.45050311088562 -2.2723708152770996 -0.39318031072616577
0.5856807231903076 0.8207910060882568 -0.05813966691493988
2.2285890579223633 0.22519296407699585 -0.3004632890224457
3.6582608222961426 -1.214105486869812 -0.524570107460022
2.4370851516723633 -2.2425851821899414 -0.3919872045516968
0.5884726047515869 0.8311296701431274 -0.057648904621601105
1.1328480243682861 0.663575291633606 -0.13683190941810608
2.2375354766845703 0.2355693131685257 -0.3014000654220581
3.770517349243164 -1.2360379695892334 -0.543540894985199
2.4412670135498047 -2.2299647331237793 -0.39543938636779785
0.5769960284233093 0.8209823369979858 -0.055575210601091385
1.1175285577774048 0.660378098487854 -0.134370818734169
2.2514891624450684 0.24538522958755493 -0.302996426820755
2.4234251976013184 -2.197427749633789 -0.39413803815841675
0.5914467573165894 0.8475037813186646 -0.056151945143938065
1.2008851766586304 0.7150192260742188 -0.14369173347949982
2.265446186065674 0.25491130352020264 -0.30458760261535645
4.647483825683594 -1.4849889278411865 -0.6718055009841919
2.416449546813965 -2.1750173568725586 -0.3945830166339874
0.5855273604393005 0.8456088304519653 -0.054803624749183655
1.2026066780090332 0.7220277786254883 -0.1432238519191742
2.269228219985962 0.2649671137332916 -0.3056485056877136
4.6859941482543945 -1.4774882793426514 -0.6782948970794678
2.401839017868042 -2.1459836959838867 -0.39490386843681335
0.5824667811393738 0.8478114008903503 -0.05336746200919151
1.1574829816818237 0.700720489025116 -0.13720041513442993
2.30781888961792 0.2780507802963257 -0.3093298673629761
4.78114652633667 -1.4873307943344116 -0.6939082741737366
2.4020042419433594 -2.1303510665893555 -0.39648884534835815
0.5906369090080261 0.86649090051651 -0.05330561101436615
2.3018691539764404 0.2863049805164337 -0.30826541781425476
4.786334037780762 -1.4697256088256836 -0.6956560611724854
2.3875575065612793 -2.10121488571167 -0.39558762311935425
0.6016362905502319 0.8892815709114075 -0.05326308310031891
2.330355644226074 0.29852545261383057 -0.3118075132369995
4.772751331329346 -1.4455243349075317 -0.6946445107460022
2.383772850036621 -2.082430124282837 -0.39649853110313416
0.6039803624153137 0.8998349905014038 -0.05224541202187538
2.3292460441589355 0.30747824907302856 -0.3113974630832672
2.379831075668335 -2.0636563301086426 -0.3979330062866211
0.5924083590507507 0.8896237015724182 -0.05021735653281212
0.9322137236595154 0.5834171175956726 -0.10782910883426666
2.375784158706665 -2.0449399948120117 -0.3993358016014099
0.586578905582428 0.8875697255134583 -0.04868295043706894
0.9175063371658325 0.5789033770561218 -0.1056080013513565
3.392442464828491 0.47375813126564026 -0.45156583189964294
2.3720924854278564 -2.025958299636841 -0.3996182084083557
0.5809198617935181 0.8853759169578552 -0.04734549671411514
0.9196396470069885 0.5849728584289551 -0.10533156245946884
3.3515820503234863 0.48058220744132996 -0.4451560080051422
4.3217668533325195 -1.238430380821228 -0.6326305270195007
2.3678340911865234 -2.0073587894439697 -0.4009631276130676
0.5831519961357117 0.8959199786186218 -0.04648616909980774
0.9300317764282227 0.596611499786377 -0.1058102548122406
3.3447306156158447 0.49271392822265625 -0.4450942575931549
4.311983585357666 -1.2177302837371826 -0.6321044564247131
2.355937957763672 -1.9824789762496948 -0.4004477262496948
0.5746347308158875 0.8896111845970154 -0.04457303509116173
0.9613702297210693 0.6217002868652344 -0.10842437297105789
3.3381423950195312 0.5048465728759766 -0.44267404079437256
4.31620454788208 -1.201858401298523 -0.6336684226989746
2.351793050765991 -1.963616132736206 -0.4017218053340912
0.5687039494514465 0.8875501155853271 -0.043074965476989746
3.336345911026001 0.5170899033546448 -0.44208475947380066
4.3205742835998535 -1.185218095779419 -0.6352323889732361
2.335803508758545 -1.9357805252075195 -0.4004691243171692
0.5631000399589539 0.8852532505989075 -0.04177215322852135
1.08590567111969 0.7135780453681946 -0.12099718302488327
3.3199825286865234 0.5264275670051575 -0.438963919878006
4.324879169464111 -1.1685618162155151 -0.636796236038208
2.3310744762420654 -1.9174931049346924 -0.4016670882701874
0.5625407695770264 0.8915731310844421 -0.04086712747812271
1.0877553224563599 0.7199694514274597 -0.12055013328790665
3.3327884674072266 0.5409878492355347 -0.44031691551208496
4.338484287261963 -1.155192255973816 -0.6397706270217896
2.326629638671875 -1.8989055156707764 -0.4023093581199646
0.564757764339447 0.9020487070083618 -0.03976855054497719
1.0766786336898804 0.7188701629638672 -0.1182742565870285
3.3306446075439453 0.5549686551094055 -0.4391383230686188
4.3474602699279785 -1.139723777770996 -0.6420449018478394
2.317898750305176 -1.8776674270629883 -0.40225717425346375
0.5667450428009033 0.9126428961753845 -0.038829486817121506
3.319084882736206 0.5643609166145325 -0.43726104497909546
4.37075662612915 -1.1279133558273315 -0.6464489698410034
2.320629119873047 -1.8658337593078613 -0.4041876494884491
0.5686653256416321 0.923268735408783 -0.037676699459552765
3.3267388343811035 0.5788140892982483 -0.4379596710205078
4.398626327514648 -1.1179261207580566 -0.6515774726867676
2.31200909614563 -1.8443315029144287 -0.4040786325931549
0.5762115120887756 0.9421361684799194 -0.0372147262096405
0.925158679485321 0.6322841644287109 -0.0996149331331253
3.3345096111297607 0.5927658081054688 -0.43806371092796326
4.46027946472168 -1.1153806447982788 -0.6617090106010437
2.2951748371124268 -1.8171772956848145 -0.4025723934173584
0.5753726959228516 0.9485580325126648 -0.03583411127328873
0.9106148481369019 0.6272532939910889 -0.09712886065244675
3.327554702758789 0.6047192215919495 -0.4356515407562256
4.670857906341553 -1.1498662233352661 -0.6931765675544739
2.2898595333099365 -1.7993545532226562 -0.4030704200267792
0.5590332746505737 0.9292851090431213 -0.033702120184898376
0.9083651304244995 0.6306251287460327 -0.09635688364505768
3.3352174758911133 0.618748128414154 -0.4357450604438782
4.670193195343018 -1.1307015419006348 -0.6941407918930054
2.284701108932495 -1.7811541557312012 -0.4040478467941284
0.576297402381897 0.9655980467796326 -0.0335707888007164
0.906116247177124 0.6339982151985168 -0.09539183974266052
3.323146343231201 0.6297173500061035 -0.43388062715530396
4.664636611938477 -1.110412836074829 -0.6943848133087158
2.287130117416382 -1.7696086168289185 -0.4048713445663452
0.590594470500946 0.9978456497192383 -0.033198609948158264
0.8957247138023376 0.6316301822662354 -0.093384750187397
3.345461130142212 0.6466567516326904 -0.4346828758716583
4.649403095245361 -1.08879554271698 -0.6915184259414673
2.2779171466827393 -1.7485389709472656 -0.40460440516471863
0.5768362283706665 0.9828004837036133 -0.031035101041197777
0.8975309729576111 0.637842059135437 -0.09284837543964386
3.3090384006500244 0.6528068780899048 -0.4290764629840851
4.643787860870361 -1.0686886310577393 -0.6909170150756836
2.272214889526367 -1.7309638261795044 -0.40500450134277344
0.5809657573699951 0.9977984428405762 -0.03003285638988018
0.8912016749382019 0.6382730603218079 -0.09147167950868607
3.3407366275787354 0.6717905402183533 -0.43289870023727417
4.628316879272461 -1.0464320182800293 -0.6897035241127014
2.26641583442688 -1.7134549617767334 -0.4053783416748047
0.5776740908622742 0.9997548460960388 -0.028420688584446907
0.888933539390564 0.64159095287323 -0.09032370150089264
3.348146677017212 0.6866668462753296 -0.43177297711372375
4.63230037689209 -1.0286529064178467 -0.6897035241127014
2.268791913986206 -1.701600193977356 -0.4066521227359772
0.5789903402328491 1.0105650424957275 -0.02744712494313717
0.886639416217804 0.6448908448219299 -0.08936697244644165
3.32147479057312 0.693892240524292 -0.42745521664619446
4.626253604888916 -1.0095322132110596 -0.6890915632247925
2.2628180980682373 -1.6841964721679688 -0.406984806060791
0.5754777193069458 1.0126123428344727 -0.025820903480052948
0.8805503249168396 0.6449375152587891 -0.08781781792640686
3.377084493637085 0.7190536260604858 -0.4343518316745758
4.571463584899902 -0.9808714389801025 -0.6820830702781677
2.2565150260925293 -1.6672966480255127 -0.40680158138275146
0.5766875147819519 1.0234553813934326 -0.024402311071753502
0.8820247054100037 0.6514735221862793 -0.08726195245981216
3.3844192028045654 0.7335925102233887 -0.43318241834640503
2.2588536739349365 -1.6550480127334595 -0.40901681780815125
0.5755643844604492 1.0298511981964111 -0.023064803332090378
0.8837146162986755 0.657741367816925 -0.08631277084350586
3.430173873901367 0.7573113441467285 -0.43816232681274414
4.297875881195068 -0.8869185447692871 -0.6409857273101807
2.2530131340026855 -1.6375107765197754 -0.4083072245121002
0.5745855569839478 1.0361533164978027 -0.02150825597345829
0.8696330189704895 0.6517530083656311 -0.08400309830904007
3.3792595863342285 0.7590704560279846 -0.429555743932724
4.15081787109375 -0.8399677276611328 -0.6193228363990784
2.238708019256592 -1.6146070957183838 -0.4066081643104553
0.573390007019043 1.0425615310668945 -0.019730042666196823
0.8633295893669128 0.6519840359687805 -0.08248487859964371
3.4104743003845215 0.7798500657081604 -0.43142130970954895
4.1637187004089355 -0.8259490132331848 -0.6207698583602905
2.236614227294922 -1.6000778675079346 -0.4070707857608795
0.5623965263366699 1.031508207321167 -0.018045993521809578
0.8650964498519897 0.6580729484558105 -0.08153711259365082
2.238198757171631 -1.5888420343399048 -0.4082549512386322
0.5601885318756104 1.0270318984985352 -0.01715248078107834
0.8651527166366577 0.658115804195404 -0.08058853447437286
3.480764627456665 0.8093589544296265 -0.4349875748157501
2.2382688522338867 -1.5894792079925537 -0.40538036823272705
0.5685796737670898 1.0338151454925537 -0.01853463426232338
0.8675365447998047 0.6549234986305237 -0.0809679701924324
3.290508985519409 0.751814067363739 -0.40905433893203735
4.1549882888793945 -0.825724720954895 -0.6104518175125122
2.2409324645996094 -1.6037585735321045 -0.40299394726753235
0.574782133102417 1.036081314086914 -0.01964714378118515
0.8818565607070923 0.6606737375259399 -0.08285149186849594
3.269155502319336 0.7337388396263123 -0.406046599149704
4.181203365325928 -0.8476359844207764 -0.6124970316886902
2.2471373081207275 -1.6212828159332275 -0.40226295590400696
0.5810046792030334 1.0383085012435913 -0.021183688193559647
0.892343282699585 0.6631959676742554 -0.08437748998403549
3.3007659912109375 0.7281365990638733 -0.4108358323574066
4.5950846672058105 -0.9499236345291138 -0.6711478233337402
2.2535276412963867 -1.6384856700897217 -0.4015004336833954
0.579880952835083 1.0274450778961182 -0.02224115841090679
0.8947204351425171 0.6598858833312988 -0.08515364676713943
3.3083884716033936 0.7165078520774841 -0.41143909096717834
4.606561660766602 -0.9699150919914246 -0.6699854135513306
2.2598226070404053 -1.6557579040527344 -0.40070638060569763
0.5905062556266785 1.0386346578598022 -0.023775048553943634
0.8850282430648804 0.647742748260498 -0.08458235114812851
3.320702075958252 0.7064427733421326 -0.4126456677913666
4.627346992492676 -0.9928619861602783 -0.6710299253463745
2.2660229206085205 -1.6730992794036865 -0.3998807966709137
0.5893210172653198 1.0277643203735352 -0.02502354234457016
0.8873364329338074 0.6444510221481323 -0.08553940802812576
3.3135316371917725 0.6916292309761047 -0.4126206636428833
4.623729228973389 -1.0106723308563232 -0.669377863407135
2.271831750869751 -1.690905213356018 -0.3990236520767212
0.5830631256103516 1.0082688331604004 -0.02561762183904648
0.8896560668945312 0.6411682367324829 -0.08611360937356949
3.3112525939941406 0.6784980893135071 -0.41142576932907104
4.6348347663879395 -1.0309133529663086 -0.6689925193786621
2.2699134349823 -1.7024415731430054 -0.39675018191337585
0.5817021727561951 0.997461199760437 -0.026808466762304306
0.8876749277114868 0.635278582572937 -0.08648427575826645
3.3039605617523193 0.6637952923774719 -0.41139382123947144
4.635898113250732 -1.0498472452163696 -0.668030858039856
2.275786876678467 -1.719915509223938 -0.39633816480636597
0.5851633548736572 0.9953956604003906 -0.02821916528046131
0.8981740474700928 0.637591540813446 -0.08823533356189728
3.306230306625366 0.6516534090042114 -0.41257014870643616
4.651660919189453 -1.0713554620742798 -0.6683149933815002
2.281315326690674 -1.7378965616226196 -0.39539942145347595
0.5887898206710815 0.9932138919830322 -0.029629822820425034
0.8963925242424011 0.631398618221283 -0.08841018378734589
3.3087785243988037 0.6389672160148621 -0.411981999874115
4.662204265594482 -1.0926517248153687 -0.668723464012146
2.2831168174743652 -1.7525303363800049 -0.3937513828277588
0.5971927642822266 0.9998154044151306 -0.030902663245797157
0.9354127049446106 0.6537672877311707 -0.09282371401786804
3.306330919265747 0.6253354549407959 -0.4113752245903015
4.672765731811523 -1.1140717267990112 -0.6682829260826111
2.2966530323028564 -1.7763359546661377 -0.3935930132865906
0.5905157327651978 0.9804559946060181 -0.031970277428627014
3.30853009223938 0.6131998300552368 -0.4119625389575958
4.67850399017334 -1.1335780620574951 -0.667980432510376
2.2939934730529785 -1.7883986234664917 -0.3917264938354492
0.5835427045822144 0.9612703323364258 -0.032589465379714966
3.3105764389038086 0.6004400253295898 -0.41431155800819397
4.674343109130859 -1.1515895128250122 -0.6663000583648682
2.2993292808532715 -1.8061469793319702 -0.3916873335838318
0.5896530151367188 0.9633581042289734 -0.033917125314474106
1.1563726663589478 0.7894156575202942 -0.11683427542448044
3.312826156616211 0.5883147716522217 -0.41372430324554443
4.425182342529297 -1.1082452535629272 -0.6289514303207397
2.3008406162261963 -1.821009874343872 -0.38943052291870117
0.5721610188484192 0.9271313548088074 -0.034047581255435944
1.1467978954315186 0.7767325043678284 -0.11679569631814957
3.319807529449463 0.5764142870903015 -0.41551074385643005
4.402491569519043 -1.1180903911590576 -0.624634325504303
2.321868419647217 -1.8508706092834473 -0.3914441764354706
0.5753714442253113 0.9250924587249756 -0.0353785902261734
1.1248902082443237 0.755609929561615 -0.11522099375724792
3.3121843338012695 0.5625928044319153 -0.41370049118995667
4.359611988067627 -1.1266605854034424 -0.6176131963729858
2.326331377029419 -1.869749903678894 -0.3902794420719147
0.5734286308288574 0.914478063583374 -0.03618437051773071
1.102695107460022 0.7348502278327942 -0.11383578181266785
3.3239684104919434 0.5514715313911438 -0.41609880328178406
4.341492652893066 -1.1389694213867188 -0.6124414801597595
2.327486038208008 -1.884760856628418 -0.38844001293182373
0.5740823745727539 0.9081084132194519 -0.03732944652438164
1.0928484201431274 0.7225179672241211 -0.11346656829118729
3.316286563873291 0.5365272760391235 -0.4154595136642456
4.332507133483887 -1.154410481452942 -0.6102004647254944
2.3285088539123535 -1.8997622728347778 -0.3871038854122162
0.5743851661682129 0.9019514918327332 -0.03827562555670738
1.0704485177993774 0.7020840048789978 -0.1115482822060585
3.32304048538208 0.525723397731781 -0.41607317328453064
4.32835054397583 -1.1711208820343018 -0.6078526973724365
2.340663194656372 -1.9246958494186401 -0.38712456822395325
0.5722664594650269 0.8913965821266174 -0.03902721032500267
3.324873208999634 0.5135291814804077 -0.4166603684425354
4.329215049743652 -1.1884008646011353 -0.6053903102874756
2.3606948852539062 -1.955714225769043 -0.3878147304058075
0.5807759761810303 0.8977430462837219 -0.040701724588871
0.9374346733093262 0.6048303246498108 -0.09897749125957489
3.3219854831695557 0.5000311136245728 -0.4154595136642456
4.401200294494629 -1.226353406906128 -0.614486813545227
2.3537700176239014 -1.9645698070526123 -0.3851393759250641
0.5867720246315002 0.8997632265090942 -0.04182933643460274
0.9228371977806091 0.590632975101471 -0.09759250283241272
3.323737144470215 0.48725083470344543 -0.41663214564323425
4.3923187255859375 -1.2412450313568115 -0.6106339693069458
2.3696460723876953 -1.9926015138626099 -0.3856365978717804
0.589719831943512 0.8977627158164978 -0.0433291457593441
0.9291277527809143 0.5898699164390564 -0.09899655729532242
3.3254289627075195 0.47505518794059753 -0.4172184467315674
4.402457237243652 -1.2607213258743286 -0.6110244989395142
2.3742923736572266 -2.0106983184814453 -0.38477563858032227
0.5929809808731079 0.8955568671226501 -0.0444539412856102
0.9480794668197632 0.5970374345779419 -0.10157056152820587
2.385429620742798 -2.0366294384002686 -0.38401225209236145
0.599001944065094 0.8974867463111877 -0.04597901180386543
0.9713166356086731 0.6067103147506714 -0.10462722927331924
2.378202199935913 -2.045576572418213 -0.381274938583374
0.6048914194107056 0.899495005607605 -0.04732703045010567
2.336682081222534 0.3068002760410309 -0.29396483302116394
2.3934483528137207 -2.0740010738372803 -0.38213101029396057
2.3081603050231934 0.29445385932922363 -0.2910638451576233
4.786841869354248 -1.4507043361663818 -0.6585046052932739
2.397350549697876 -2.0928163528442383 -0.3805955648422241
0.6110942363739014 0.8951591849327087 -0.04978635162115097
1.2199190855026245 0.7437652945518494 -0.1335492879152298
2.289628505706787 0.28315943479537964 -0.28817877173423767
4.790932655334473 -1.472053050994873 -0.6580604314804077
2.4119129180908203 -2.1219024658203125 -0.3813548684120178
0.6033177971839905 0.8761938214302063 -0.050168368965387344
1.2014915943145752 0.7259305715560913 -0.1324477195739746
2.2807490825653076 0.27357789874076843 -0.2873402237892151
4.6957855224609375 -1.4616751670837402 -0.643976628780365
2.4081828594207764 -2.1343295574188232 -0.3780131936073303
0.5976518988609314 0.8618327379226685 -0.050560079514980316
1.1995439529418945 0.7193347215652466 -0.13295455276966095
2.2620198726654053 0.2625248432159424 -0.28525522351264954
4.652844429016113 -1.4679290056228638 -0.6345258951187134
2.419111967086792 -2.159898519515991 -0.3781000077724457
0.5950543284416199 0.8514060378074646 -0.0511663481593132
1.1896287202835083 0.7066307067871094 -0.13250112533569336
2.248171329498291 0.2521728277206421 -0.2837856709957123
4.60985803604126 -1.4729665517807007 -0.6276779174804688
2.4336788654327393 -2.188987970352173 -0.3775753080844879
0.5893614292144775 0.8370228409767151 -0.0516790933907032
1.2221482992172241 0.719900369644165 -0.1368277668952942
2.2391672134399414 0.2428559958934784 -0.2829340994358063
2.4406073093414307 -2.2114555835723877 -0.37699317932128906
0.5866089463233948 0.8266605734825134 -0.052413348108530045
1.2330386638641357 0.7208183407783508 -0.13878510892391205
3.6378040313720703 -1.1925323009490967 -0.49381035566329956
2.447014808654785 -2.234431743621826 -0.37637606263160706
0.5922233462333679 0.8287357687950134 -0.05356045439839363
3.6194045543670654 -1.201911211013794 -0.4892290532588959
2.4574296474456787 -2.260514259338379 -0.3751183748245239
0.5835525989532471 0.8103073835372925 -0.05355597287416458
3.587009906768799 -1.2057684659957886 -0.48343050479888916
2.4603500366210938 -2.279904842376709 -0.3732806146144867
0.5982093214988708 0.8242717385292053 -0.055871427059173584
1.1197471618652344 0.6379156708717346 -0.12749451398849487
1.7682846784591675 0.1649726778268814 -0.2237265557050705
3.6153805255889893 -1.2307759523391724 -0.4865325689315796
2.4667932987213135 -2.3027379512786865 -0.37195903062820435
0.6246125102043152 0.8543630242347717 -0.05935550853610039
1.7689050436019897 0.15818177163600922 -0.2237265557050705
2.4766764640808105 -2.329010009765625 -0.37173134088516235
0.618813693523407 0.8399522304534912 -0.0597902350127697
1.206667423248291 0.6757662296295166 -0.1392614096403122
1.769433856010437 0.15169398486614227 -0.22403651475906372
2.4859907627105713 -2.355820655822754 -0.3714600205421448
0.6275059580802917 0.8458623886108398 -0.061465341597795486
1.204861044883728 0.6686902642250061 -0.13924147188663483
1.7699644565582275 0.14489558339118958 -0.22434648871421814
4.407025337219238 -1.554552674293518 -0.5878727436065674
2.492880344390869 -2.378089666366577 -0.36940765380859375
0.6365399956703186 0.8515000343322754 -0.06316128373146057
1.167994499206543 0.6426414847373962 -0.13564810156822205
1.78043794631958 0.138872891664505 -0.22528812289237976
4.387022495269775 -1.5673270225524902 -0.583561360836029
2.4979732036590576 -2.402174472808838 -0.367306113243103
0.6336106657981873 0.8411351442337036 -0.0636710375547409
1.15279221534729 0.6287837624549866 -0.13454027473926544
1.7907897233963013 0.1330786645412445 -0.226853147149086
4.357834339141846 -1.575793743133545 -0.5788365006446838
2.5036673545837402 -2.42537522315979 -0.3663722574710846
0.6155143976211548 0.8109102845191956 -0.06298025697469711
1.1724638938903809 0.6339488625526428 -0.13797461986541748
1.7912083864212036 0.1261959820985794 -0.227479949593544
4.329014301300049 -1.5833375453948975 -0.5733243227005005
2.5128307342529297 -2.4521687030792236 -0.3653089106082916
0.6184419989585876 0.8085960149765015 -0.06404633074998856
1.218434453010559 0.6533188223838806 -0.14384685456752777
1.7916191816329956 0.11962738633155823 -0.2277933657169342
4.304476261138916 -1.5931282043457031 -0.56925368309021
2.518239736557007 -2.4755313396453857 -0.36429718136787415
0.6151221990585327 0.7984641790390015 -0.06464988738298416
1.7970556020736694 0.11306115239858627 -0.22810834646224976
4.275833606719971 -1.6003700494766235 -0.5621926784515381
2.5377395153045654 -2.513056516647339 -0.3640388250350952
0.6088245511054993 0.7843263745307922 -0.06472953408956528
1.7974579334259033 0.10647385567426682 -0.22810834646224976
4.256198406219482 -1.6108306646347046 -0.5587709546089172
2.532257556915283 -2.5260777473449707 -0.36142462491989136
0.6113799810409546 0.7822492718696594 -0.0657692477107048
1.2254314422607422 0.6395511627197266 -0.1462596207857132
1.8076838254928589 0.10074873268604279 -0.22968114912509918
4.269364356994629 -1.6328736543655396 -0.558815062046051
2.5556833744049072 -2.566411256790161 -0.3627881705760956
0.6080271601676941 0.7721099257469177 -0.06613744795322418
1.7981826066970825 0.09266530722379684 -0.2284226268529892
4.272214412689209 -1.653652310371399 -0.5584294199943542
2.559657573699951 -2.5911221504211426 -0.3603319525718689
0.6108095645904541 0.7698215246200562 -0.06716657429933548
1.768743634223938 0.08464944362640381 -0.22495609521865845
4.270726680755615 -1.6719599962234497 -0.5566331744194031
2.5673699378967285 -2.618967294692993 -0.3589528799057007
0.6197970509529114 0.7752955555915833 -0.0692344531416893
1.7640610933303833 0.07763753086328506 -0.22463415563106537
4.278687477111816 -1.6931884288787842 -0.5560311079025269
2.5788393020629883 -2.6500275135040283 -0.3580031394958496
0.6223264336585999 0.773188591003418 -0.07010062783956528
1.1944741010665894 0.6010190844535828 -0.14502575993537903
1.7742207050323486 0.07219056785106659 -0.22589613497257233
4.291548728942871 -1.7156282663345337 -0.555203914642334
2.5875935554504395 -2.676725149154663 -0.3565138280391693
0.6251095533370972 0.7708450555801392 -0.07113996148109436
1.2499808073043823 0.6232174038887024 -0.15222665667533875
1.7744848728179932 0.06537753343582153 -0.22589613497257233
4.299310684204102 -1.7370340824127197 -0.5545651912689209
2.598658800125122 -2.707963466644287 -0.3560984432697296
0.6310303211212158 0.7723425626754761 -0.07271599769592285
1.25226891040802 0.6183660626411438 -0.15320171415805817
1.7746936082839966 0.058252494782209396 -0.22620604932308197
4.301455497741699 -1.7588956356048584 -0.5533194541931152
2.6052699089050293 -2.7367594242095947 -0.3531843423843384
0.6338081359863281 0.7699653506278992 -0.07376038283109665
1.2946079969406128 0.6333816051483154 -0.1591147482395172
1.7848198413848877 0.051725104451179504 -0.2274697721004486
4.313602924346924 -1.7823442220687866 -0.5532403588294983
2.612530469894409 -2.76460599899292 -0.3521917760372162
0.6397591233253479 0.771415114402771 -0.07517871260643005
1.7900034189224243 0.044997163116931915 -0.22778911888599396
4.316069602966309 -1.8027962446212769 -0.55278480052948
2.6162571907043457 -2.7889559268951416 -0.35003137588500977
0.6425314545631409 0.7690042853355408 -0.07622814923524857
1.2543506622314453 0.6020612120628357 -0.15532802045345306
1.7901562452316284 0.038436174392700195 -0.22778911888599396
4.332751750946045 -1.828444004058838 -0.5516151189804077
2.6402435302734375 -2.835280418395996 -0.34985607862472534
0.6514443755149841 0.7744377255439758 -0.07804644107818604
1.1979398727416992 0.5701053142547607 -0.14881101250648499
1.795238733291626 0.03227628767490387 -0.22842010855674744
4.326929569244385 -1.8429147005081177 -0.549152672290802
2.6513237953186035 -2.866178274154663 -0.34914708137512207
0.6476375460624695 0.7644790410995483 -0.07850165665149689
1.1776037216186523 0.5546404123306274 -0.14738748967647552
1.8150619268417358 0.025978393852710724 -0.2318945825099945
4.33359432220459 -1.8654441833496094 -0.5500689148902893
2.6578900814056396 -2.894486904144287 -0.3472588360309601
0.663324236869812 0.7772021293640137 -0.08113393187522888
1.1616908311843872 0.541705310344696 -0.1453610211610794
1.8449937105178833 0.01867734268307686 -0.23505210876464844
4.340172290802002 -1.8889622688293457 -0.5476754903793335
2.673367738723755 -2.9349043369293213 -0.345929890871048
0.6531153321266174 0.7595847249031067 -0.08059991896152496
1.204117774963379 0.5561255216598511 -0.15182077884674072
1.8449674844741821 0.011914446018636227 -0.23569615185260773
4.342243194580078 -1.9097282886505127 -0.5463412404060364
2.6761584281921387 -2.959685802459717 -0.3441840708255768
0.6590928435325623 0.7608776092529297 -0.0822308212518692
1.2694169282913208 0.5803806185722351 -0.1605122834444046
1.849959373474121 0.004843193106353283 -0.23632973432540894
4.353634834289551 -1.9338124990463257 -0.5461353063583374
2.688866138458252 -2.9957382678985596 -0.34227412939071655
0.6683825254440308 0.7659114003181458 -0.08393212407827377
1.2351151704788208 0.5597532987594604 -0.15617921948432922
1.8599258661270142 -0.0016230918699875474 -0.23727232217788696
2.6880879402160645 -3.0170438289642334 -0.33860838413238525
0.6640289425849915 0.7563806176185608 -0.08398763090372086
1.1873066425323486 0.5326007604598999 -0.15079477429389954
1.8599073886871338 -0.008440050296485424 -0.23727232217788696
2.7036545276641846 -3.0570003986358643 -0.3376750648021698
0.6667282581329346 0.7538643479347229 -0.08521723747253418
1.1707937717437744 0.5205366015434265 -0.14961077272891998
1.8598666191101074 -0.01493228692561388 -0.23727232217788696
5.08400821685791 -2.3222761154174805 -0.6328661441802979
2.729875087738037 -3.107351541519165 -0.3386010527610779
0.6760550737380981 0.7587876319885254 -0.0871252566576004
1.1682562828063965 0.5138017535209656 -0.1496991515159607
1.8697104454040527 -0.02251758612692356 -0.2385377734899521
5.083856582641602 -2.3479950428009033 -0.62812739610672
2.738352060317993 -3.1401381492614746 -0.3366858661174774
0.6687884330749512 0.7451152205467224 -0.08689254522323608
1.1564654111862183 0.5033255815505981 -0.14883223176002502
1.8348959684371948 -0.02914518117904663 -0.23410867154598236
5.084521293640137 -2.3709511756896973 -0.6263047456741333
2.7434022426605225 -3.169304847717285 -0.33357861638069153
0.67479407787323 0.7462855577468872 -0.08837851136922836
1.8447009325027466 -0.035742148756980896 -0.23537413775920868
5.098894119262695 -2.399357318878174 -0.6271114349365234
2.755814552307129 -3.205061197280884 -0.3326665759086609
0.6738395690917969 0.7402804493904114 -0.08916405588388443
1.2373805046081543 0.5282981395721436 -0.16067220270633698
1.8494335412979126 -0.04261542856693268 -0.23665264248847961
5.103926181793213 -2.424614191055298 -0.6248257756233215
2.77016282081604 -3.2457375526428223 -0.3313365578651428
0.6731191873550415 0.7340661287307739 -0.08976346999406815
1.2713342905044556 0.5370326042175293 -0.1655450463294983
1.8591718673706055 -0.04998299106955528 -0.2379215508699417
5.117706775665283 -2.454190969467163 -0.6246017217636108
2.7842509746551514 -3.286562919616699 -0.329922616481781
0.6824983954429626 0.7388398051261902 -0.09171445667743683
1.2823737859725952 0.5361655950546265 -0.16746382415294647
1.8590391874313354 -0.05744832009077072 -0.23727232217788696
5.134510517120361 -2.488755941390991 -0.6248958706855774
2.793708562850952 -3.3246958255767822 -0.3280482590198517
0.681733250617981 0.7326059937477112 -0.09248312562704086
1.1467337608337402 0.4742893576622009 -0.15017105638980865
1.8637009859085083 -0.06410486996173859 -0.23855601251125336
5.135453701019287 -2.5102782249450684 -0.6229916214942932
2.802020311355591 -3.3571276664733887 -0.32649216055870056
0.6840923428535461 0.7302702069282532 -0.093531034886837
1.1621721982955933 0.4756939709186554 -0.15263064205646515
1.8734365701675415 -0.07164271920919418 -0.23917049169540405
5.148799419403076 -2.540224313735962 -0.6226942539215088
2.828160524368286 -3.4138035774230957 -0.32477006316185
0.6935409307479858 0.7349390983581543 -0.09534356743097305
1.159151554107666 0.46974021196365356 -0.15268224477767944
1.8781169652938843 -0.07871641963720322 -0.2398032248020172
5.157388210296631 -2.569131374359131 -0.6188173294067383
2.8411478996276855 -3.4551796913146973 -0.3237890899181366
0.7029961347579956 0.7395098209381104 -0.09770766645669937
1.1655354499816895 0.46688899397850037 -0.15416471660137177
1.8826714754104614 -0.0861501544713974 -0.24109382927417755
5.16580057144165 -2.5969974994659424 -0.6199438571929932
2.8602123260498047 -3.5044684410095215 -0.3226619064807892
0.7022003531455994 0.7332718372344971 -0.09811706095933914
1.1764715909957886 0.46603554487228394 -0.15604600310325623
1.882385015487671 -0.093051977455616 -0.24076487123966217
5.17824649810791 -2.6282107830047607 -0.6195686459541321
2.835071086883545 -3.499772071838379 -0.31495046615600586
0.7048115730285645 0.7306188941001892 -0.0991801992058754
1.1780955791473389 0.46169060468673706 -0.15670855343341827
1.8869664669036865 -0.10054300725460052 -0.24139846861362457
5.199203014373779 -2.6651484966278076 -0.617163896560669
2.8218166828155518 -3.5108869075775146 -0.3102337121963501
0.7038177251815796 0.7245103120803833 -0.09975183755159378
1.1888753175735474 0.4611343443393707 -0.15860533714294434
1.8916213512420654 -0.10774526745080948 -0.24137070775032043
5.212711334228516 -2.6939382553100586 -0.6167179346084595
2.8072478771209717 -3.5165786743164062 -0.30517828464508057
0.7099890112876892 0.7252700924873352 -0.1014832854270935
1.208982229232788 0.4638426899909973 -0.16197794675827026
1.8960599899291992 -0.11530368030071259 -0.24266564846038818
5.198110103607178 -2.711733102798462 -0.6141487956047058
2.7883408069610596 -3.5192720890045166 -0.2997998893260956
0.7126935720443726 0.72246253490448 -0.10254606604576111
1.9352412223815918 -0.12514643371105194 -0.24739593267440796
5.170054912567139 -2.723554849624634 -0.6069658994674683
2.771300792694092 -3.5267586708068848 -0.29476991295814514
0.7115170359611511 0.7165018320083618 -0.10292462259531021
1.9397177696228027 -0.1325768083333969 -0.24802865087985992
5.134059429168701 -2.7286787033081055 -0.599807620048523
2.752438545227051 -3.5293047428131104 -0.28864625096321106
0.72108393907547 0.7208322286605835 -0.1051843985915184
5.102199077606201 -2.7357754707336426 -0.5962316989898682
2.7396678924560547 -3.5396060943603516 -0.28395915031433105
0.7201125621795654 0.7146036028862 -0.10573374480009079
5.07452392578125 -2.7460744380950928 -0.590154767036438
2.7237863540649414 -3.5458614826202393 -0.2797407805919647
0.7297323346138 0.7188605666160583 -0.10784310102462769
3.856088638305664 1.3974071741104126 -0.5254121422767639
5.0472307205200195 -2.7552688121795654 -0.5851089954376221
2.707979917526245 -3.552158832550049 -0.27319222688674927
0.7249239087104797 0.7094024419784546 -0.10785829275846481
4.42365026473999 -0.36913183331489563 -0.5662899017333984
5.029706001281738 -2.7673909664154053 -0.5800890326499939
2.687290906906128 -3.5493710041046143 -0.26839154958724976
0.7312514781951904 0.7098703980445862 -0.10945431143045425
4.4271416664123535 -0.3865460753440857 -0.566922664642334
5.005288600921631 -2.7813327312469482 -0.5755828619003296
2.661228656768799 -3.5444235801696777 -0.26177316904067993
0.7370966672897339 0.7108121514320374 -0.11106061935424805
4.425723075866699 -0.40355122089385986 -0.5661470293998718
4.974682807922363 -2.7859561443328857 -0.5691021680831909
2.6555631160736084 -3.5614137649536133 -0.2584860324859619
0.725237250328064 0.6942636370658875 -0.11013077199459076
3.856922149658203 1.3325642347335815 -0.5307060480117798
4.429152488708496 -0.42023807764053345 -0.5667788982391357
4.947368621826172 -2.7945287227630615 -0.5641407370567322
2.640357494354248 -3.5669360160827637 -0.2519994080066681
0.7421170473098755 0.7052281498908997 -0.11320502310991287
3.8944151401519775 1.3288016319274902 -0.5388110876083374
4.447348117828369 -0.4392011761665344 -0.5685263276100159
4.915327548980713 -2.801379680633545 -0.5577211380004883
2.6244657039642334 -3.572777032852173 -0.24707375466823578
0.7481163144111633 0.7059758901596069 -0.11465224623680115
3.8896853923797607 1.3112914562225342 -0.5389456152915955
4.450642108917236 -0.4560040831565857 -0.5691573023796082
4.888105869293213 -2.809650421142578 -0.551823079586029
2.6056220531463623 -3.574510335922241 -0.2418852597475052
0.7435721755027771 0.6960660219192505 -0.1149667501449585
4.4536919593811035 -0.4736039340496063 -0.5705699920654297
4.865108489990234 -2.820204734802246 -0.5474176406860352
2.5926504135131836 -3.5842397212982178 -0.23725295066833496
0.745802640914917 0.69352787733078 -0.11585554480552673
3.8047029972076416 1.250922679901123 -0.5301219820976257
4.456955432891846 -0.4904778003692627 -0.5704193115234375
4.8421783447265625 -2.830674409866333 -0.5420486927032471
2.5796396732330322 -3.5939178466796875 -0.23262040317058563
0.755534827709198 0.6974316835403442 -0.11824214458465576
3.898254156112671 1.2666195631027222 -0.5454493761062622
4.4550395011901855 -0.5075876116752625 -0.5704193115234375
4.814449787139893 -2.8393242359161377 -0.5362228751182556
2.563715934753418 -3.5995101928710938 -0.2269589751958847
0.7543477416038513 0.6912323832511902 -0.11856383830308914
4.472860336303711 -0.5270232558250427 -0.5721572637557983
4.799056529998779 -2.8562726974487305 -0.5318466424942017
2.55001163482666 -3.6095197200775146 -0.22233109176158905
0.7528863549232483 0.6853140592575073 -0.11887677758932114
4.466073989868164 -0.5428271889686584 -0.5707419514656067
4.776989459991455 -2.8646340370178223 -0.5275081396102905
2.526710033416748 -3.6018221378326416 -0.2159511148929596
0.7627893686294556 0.6889912486076355 -0.12111301720142365
3.9211008548736572 1.2250417470932007 -0.5525049567222595
4.473800182342529 -0.5612064003944397 -0.5720005035400391
4.7454729080200195 -2.869434118270874 -0.5212796926498413
2.5193259716033936 -3.619440793991089 -0.21182343363761902
0.757805585861206 0.6794626712799072 -0.12118642777204514
3.9299304485321045 1.2120083570480347 -0.5560427308082581
4.4718122482299805 -0.5776126384735107 -0.5712134838104248
4.709228038787842 -2.87226939201355 -0.5146213173866272
2.500511884689331 -3.620640993118286 -0.2059679627418518
0.7639038562774658 0.679896354675293 -0.12284856289625168
3.9390158653259277 1.1982665061950684 -0.5588684678077698
4.498963832855225 -0.5986915826797485 -0.5757760405540466
4.686251640319824 -2.8818740844726562 -0.5093873143196106
2.490168571472168 -3.634077548980713 -0.20158855617046356
0.7662938237190247 0.6770064234733582 -0.12391940504312515
3.933704137802124 1.1809161901474 -0.5589570999145508
4.482095241546631 -0.6131736636161804 -0.5730986595153809
4.654799938201904 -2.8860981464385986 -0.5032588839530945
2.4629077911376953 -3.6226985454559326 -0.19585849344730377
0.7686556577682495 0.6740929484367371 -0.1251685619354248
3.9519903659820557 1.1698826551437378 -0.5645767450332642
4.5041680335998535 -0.6338211297988892 -0.577034592628479
4.635894775390625 -2.897953748703003 -0.500435471534729
2.304457664489746 -3.4164986610412598 -0.18064923584461212
0.774781346321106 0.6744573712348938 -0.1266726404428482
3.960817337036133 1.1567234992980957 -0.5666957497596741
4.492179870605469 -0.6497341394424438 -0.573399543762207
4.6130452156066895 -2.907238721847534 -0.4933583736419678
2.328782558441162 -3.478693962097168 -0.17765092849731445
0.7769128680229187 0.6717972755432129 -0.1277482658624649
3.955518960952759 1.1387109756469727 -0.566771924495697
4.509495258331299 -0.669121503829956 -0.5751104950904846
4.585182189941406 -2.914337396621704 -0.48965972661972046
2.313354730606079 -3.4831976890563965 -0.17306023836135864
0.775619626045227 0.6654912233352661 -0.128201425075531
4.521605491638184 -0.6886726021766663 -0.5769879221916199
4.574898719787598 -2.931398391723633 -0.4839700758457184
2.297938585281372 -3.4876549243927 -0.16775088012218475
0.7817445993423462 0.6657875180244446 -0.12971989810466766
4.518951416015625 -0.7052249908447266 -0.5777862071990967
4.589366912841797 -2.964452028274536 -0.4847245514392853
2.293435573577881 -3.5087454319000244 -0.16396331787109375
0.7916334867477417 0.6692189574241638 -0.13223975896835327
4.526106357574463 -0.724154531955719 -0.5782395005226135
4.653883457183838 -3.0303573608398438 -0.48880115151405334
2.275857925415039 -3.5085346698760986 -0.15773341059684753
0.7863941788673401 0.6598631143569946 -0.13187022507190704
4.5383076667785645 -0.7431764006614685 -0.578511655330658
2.273366689682007 -1.4927549362182617 -0.23746050894260406
2.2684643268585205 -3.5253703594207764 -0.15445202589035034
0.7922806143760681 0.6603376269340515 -0.13358739018440247
4.535586357116699 -0.7589967846870422 -0.5793142914772034
2.2804791927337646 -1.5094162225723267 -0.23685605823993683
2.252925395965576 -3.5295839309692383 -0.14988307654857635
0.790899395942688 0.6540564298629761 -0.13384082913398743
3.9927737712860107 1.0527000427246094 -0.5817932486534119
4.542245864868164 -0.7796843647956848 -0.5797598361968994
2.279212713241577 -1.5206208229064941 -0.23537474870681763
2.2427566051483154 -3.5422122478485107 -0.14420819282531738
0.796995997428894 0.654194176197052 -0.13574722409248352
3.9917969703674316 1.0360662937164307 -0.5825352072715759
4.544343948364258 -0.7972021102905273 -0.579578697681427
2.25722336769104 -1.5179351568222046 -0.23176395893096924
2.2271671295166016 -3.5462825298309326 -0.14038197696208954
0.7992962598800659 0.6511935591697693 -0.13664700090885162
3.9953505992889404 1.0206302404403687 -0.5854142308235168
4.5559983253479 -0.8172909021377563 -0.580640435218811
2.243496894836426 -1.5206754207611084 -0.22949592769145966
2.2175066471099854 -3.5584187507629395 -0.1354271024465561
0.79769366979599 0.6450380086898804 -0.13724346458911896
4.008267879486084 1.0082948207855225 -0.5897054076194763
4.54799222946167 -0.8330718278884888 -0.5808250904083252
2.233659505844116 -1.5265570878982544 -0.22718533873558044
2.2045230865478516 -3.5666415691375732 -0.13103631138801575
0.8039358854293823 0.6449960470199585 -0.13880597054958344
4.006759166717529 0.9930569529533386 -0.5904402136802673
4.559488773345947 -0.8532851338386536 -0.5818850994110107
2.22407603263855 -1.5319968461990356 -0.2248815894126892
2.188917398452759 -3.570589542388916 -0.12503252923488617
0.8061994910240173 0.6419695019721985 -0.1397053748369217
4.005603313446045 0.975720226764679 -0.5918909311294556
4.576023101806641 -0.8737508058547974 -0.5827482342720032
2.2308542728424072 -1.5487525463104248 -0.22423042356967926
2.1765072345733643 -3.5783183574676514 -0.1206466555595398
0.8120555281639099 0.6422438025474548 -0.14182277023792267
4.018307685852051 0.9639686346054077 -0.5954757928848267
4.480012893676758 -0.8732609152793884 -0.5717533826828003
2.2375078201293945 -1.5655561685562134 -0.22403490543365479
2.1582672595977783 -3.577800750732422 -0.11671245098114014
0.8064944744110107 0.6330546736717224 -0.14153936505317688
4.026390075683594 0.9495725035667419 -0.5990771055221558
4.165117263793945 -0.8284934163093567 -0.5327204465866089
2.235954761505127 -1.5767083168029785 -0.2225337028503418
2.150343418121338 -3.5943856239318848 -0.1118745282292366
0.8244309425354004 0.6420331001281738 -0.145368754863739
4.020101070404053 0.9325487613677979 -0.5983642339706421
4.541924476623535 -0.9191129207611084 -0.5788365006446838
2.2384119033813477 -1.5907565355300903 -0.2214273065328598
2.1219208240509033 -3.5765650272369385 -0.10599284619092941
0.8305957317352295 0.6419573426246643 -0.1469738483428955
4.032994270324707 0.9192351698875427 -0.601965069770813
4.596539497375488 -0.9502243399620056 -0.5846349596977234
2.2448792457580566 -1.6077684164047241 -0.22022336721420288
0.8247427940368652 0.6330761313438416 -0.146676167845726
4.03125524520874 0.9025698304176331 -0.6041291356086731
4.607829570770264 -0.9685024619102478 -0.587310791015625
2.2508745193481445 -1.6251741647720337 -0.22044682502746582
0.9952808022499084 -1.705268144607544 -0.045841313898563385
0.8387482166290283 0.6389549374580383 -0.14987578988075256
3.85073184967041 0.8473429083824158 -0.5780121684074402
4.623482704162598 -0.9903448224067688 -0.5897862911224365
2.2571496963500977 -1.6423240900039673 -0.21919827163219452
0.9665123224258423 -1.6700072288513184 -0.042776260524988174
0.8489459753036499 0.6415870189666748 -0.15258324146270752
3.892242431640625 0.8408215641975403 -0.5865942239761353
4.629416465759277 -1.009376049041748 -0.5918510556221008
2.2712762355804443 -1.6653687953948975 -0.22017231583595276
0.9703590869903564 -1.6909191608428955 -0.04117798060178757
0.8511635065078735 0.6383750438690186 -0.15369749069213867
3.991664171218872 0.8469982147216797 -0.604016900062561
4.630551338195801 -1.0282644033432007 -0.590815007686615
2.273329734802246 -1.6797207593917847 -0.21848513185977936
0.9669445753097534 -1.6986769437789917 -0.039236728101968765
0.8533462882041931 0.6351384520530701 -0.15499724447727203
4.043100357055664 0.8417023420333862 -0.6127799153327942
4.6458258628845215 -1.0503907203674316 -0.5941183567047119
2.2752468585968018 -1.6940642595291138 -0.2177705466747284
0.9484493136405945 -1.6804821491241455 -0.03637748584151268
0.8592950105667114 0.6351488828659058 -0.15683722496032715
4.065369129180908 0.8300648331642151 -0.6178879737854004
4.646982669830322 -1.0685698986053467 -0.5930728316307068
2.28509521484375 -1.7144510746002197 -0.21730712056159973
0.9325370788574219 -1.6665290594100952 -0.034000709652900696
0.8536168336868286 0.6258977651596069 -0.15649357438087463
4.072310924530029 0.8174242973327637 -0.6229743361473083
4.661865711212158 -1.0908558368682861 -0.5980483889579773
2.286539077758789 -1.7292958498001099 -0.21656456589698792
0.955539345741272 -1.7224204540252686 -0.0333499014377594
0.8597262501716614 0.6255452036857605 -0.1587095409631729
4.070140838623047 0.8007432222366333 -0.6251288652420044
4.657835960388184 -1.1079350709915161 -0.5980483889579773
2.292172431945801 -1.7467995882034302 -0.2161855399608612
0.9495400786399841 -1.72577965259552 -0.030943414196372032
0.861877977848053 0.6222923398017883 -0.15982285141944885
4.068008899688721 0.784111499786377 -0.6265531182289124
4.66791296005249 -1.1292870044708252 -0.6007457971572876
2.2976784706115723 -1.764345407485962 -0.21629640460014343
0.9623726606369019 -1.7643835544586182 -0.02981785498559475
0.8655720949172974 0.6251893639564514 -0.16224363446235657
4.076389312744141 0.7864646315574646 -0.6360200643539429
4.666783332824707 -1.1290137767791748 -0.6099649667739868
2.2891602516174316 -1.7584396600723267 -0.22059020400047302
0.9429013133049011 -1.7294033765792847 -0.0316309854388237
0.8592146635055542 0.6256316900253296 -0.16112148761749268
4.063454627990723 0.7994277477264404 -0.6366742253303528
4.660824775695801 -1.109505534172058 -0.6120496392250061
2.287414312362671 -1.743804693222046 -0.22384454309940338
0.9467993378639221 -1.7215098142623901 -0.034636881202459335
0.8648675680160522 0.6348437666893005 -0.16187134385108948
4.065199851989746 0.8159968852996826 -0.6374338865280151
4.654576778411865 -1.0900071859359741 -0.615788996219635
2.285651922225952 -1.7292520999908447 -0.22607013583183289
0.9333834052085876 -1.6831753253936768 -0.0366191603243351
0.8586278557777405 0.6351192593574524 -0.16056621074676514
4.052353858947754 0.8296178579330444 -0.6359144449234009
4.648748397827148 -1.0698301792144775 -0.6170092225074768
2.2797629833221436 -1.7116944789886475 -0.22887134552001953
0.9492782354354858 -1.6971420049667358 -0.04005421698093414
0.848344087600708 0.6325665712356567 -0.15834076702594757
4.053976058959961 0.846181333065033 -0.6366742253303528
4.642545223236084 -1.0505006313323975 -0.619049608707428
2.2699074745178223 -1.6913206577301025 -0.22924713790416718
0.9723600149154663 -1.7242532968521118 -0.04319347068667412
0.8423750400543213 0.6324731111526489 -0.15686547756195068
4.046530723571777 0.8586404323577881 -0.634470522403717
4.636758804321289 -1.0304921865463257 -0.6185889840126038
2.2638440132141113 -1.6739338636398315 -0.23147627711296082
0.9736998081207275 -1.7119338512420654 -0.0457252599298954
0.8479151129722595 0.6417385339736938 -0.15759605169296265
4.04803466796875 0.8752160668373108 -0.6352285742759705
4.630394458770752 -1.0112825632095337 -0.6206064820289612
2.2577157020568848 -1.6566376686096191 -0.23317980766296387
0.9796369075775146 -1.7084676027297974 -0.04847511276602745
