# .PCD v0.7 - Point Cloud Data file format
VERSION 0.7
FIELDS x y z
SIZE 4 4 4
TYPE F F F
COUNT 1 1 1
WIDTH 844
HEIGHT 1
VIEWPOINT 0 0 0 1 0 0 0
POINTS 844
DATA ascii
2.8208467960357666 -3.518474817276001 0.5241760015487671
3.8377108573913574 1.4877794981002808 0.603395402431488
5.182784080505371 -2.6910922527313232 0.9082233905792236
2.809049367904663 -3.5276660919189453 0.5257501006126404
3.834609031677246 1.468897819519043 0.6005116701126099
5.198386192321777 -2.724586009979248 0.914882481098175
2.7854044437408447 -3.5269336700439453 0.5271507501602173
3.8486123085021973 1.45964515209198 0.602677047252655
5.1846723556518555 -2.7393524646759033 0.9161592721939087
2.773465394973755 -3.535860538482666 0.5302881002426147
3.8587090969085693 1.4480879306793213 0.6005241870880127
5.157159328460693 -2.7490415573120117 0.9130719900131226
2.7573230266571045 -3.5419375896453857 0.5312690138816833
3.8549091815948486 1.4305652379989624 0.5976471304893494
5.133716106414795 -2.7607550621032715 0.9127912521362305
2.7442092895507812 -3.551873207092285 0.532835841178894
3.865462303161621 1.4168537855148315 0.5969293117523193
5.104808807373047 -2.7716848850250244 0.912738561630249
2.726682424545288 -3.5586230754852295 0.5353763699531555
3.8703348636627197 1.4040985107421875 0.5954921245574951
5.06882905960083 -2.7751028537750244 0.9100990295410156
2.710446357727051 -3.564417839050293 0.5371281504631042
3.8708949089050293 1.3882681131362915 0.5940586924552917
5.0496978759765625 -2.7887332439422607 0.9105569124221802
2.678576707839966 -3.5507216453552246 0.5366604924201965
5.0274763107299805 -2.798257350921631 0.9082181453704834
2.6577460765838623 -3.547516345977783 0.5364109873771667
4.994398593902588 -2.8061652183532715 0.9063200354576111
2.672973155975342 -3.5978493690490723 0.5439823865890503
2.41328501701355 0.8356748819351196 0.366199791431427
4.966618537902832 -2.81455659866333 0.9051875472068787
2.7449543476104736 -3.723165273666382 0.5646819472312927
3.8911852836608887 1.3322505950927734 0.5897519588470459
4.952695369720459 -2.8284056186676025 0.906395435333252
2.955169439315796 -4.036248683929443 0.614221453666687
3.891645908355713 1.3164924383163452 0.5868912935256958
4.91697883605957 -2.830815076828003 0.9026771783828735
2.94606351852417 -4.054908752441406 0.6171897649765015
3.9060280323028564 1.3054227828979492 0.5868678689002991
4.897757530212402 -2.843700885772705 0.9030827879905701
2.9280271530151367 -4.061304092407227 0.6200742125511169
3.9015796184539795 1.2880582809448242 0.5840230584144592
4.860471248626709 -2.8482017517089844 0.900325357913971
2.9374172687530518 -4.108998775482178 0.6291314363479614
3.9110777378082275 1.275315761566162 0.5840086340904236
4.845613956451416 -2.863405466079712 0.9005186557769775
2.890634059906006 -4.075043678283691 0.6240774393081665
3.9064950942993164 1.2579997777938843 0.5811705589294434
4.810369968414307 -2.8641433715820312 0.8977333307266235
2.8654887676239014 -4.068116188049316 0.6242039799690247
3.9159903526306152 1.2452349662780762 0.5804373025894165
4.787374973297119 -2.8731346130371094 0.8973073959350586
2.881568193435669 -4.122959136962891 0.6345614790916443
3.9154715538024902 1.2307878732681274 0.5790216326713562
4.75978422164917 -2.880357503890991 0.8951049447059631
2.8380439281463623 -4.092548370361328 0.6300420761108398
3.9154207706451416 1.2150212526321411 0.5768921375274658
4.7405009269714355 -2.8924789428710938 0.895455002784729
2.80800461769104 -4.082618236541748 0.6303638219833374
3.9339358806610107 1.2057286500930786 0.5782642364501953
4.716989040374756 -2.9019110202789307 0.8950002789497375
2.8403615951538086 -4.1622538566589355 0.6437292695045471
3.9290428161621094 1.1884931325912476 0.5754396915435791
4.693339824676514 -2.911128282546997 0.8954991698265076
2.8054351806640625 -4.143610000610352 0.6419143080711365
3.9336609840393066 1.1741704940795898 0.5732902884483337
4.683149337768555 -2.927493095397949 0.8954991698265076
2.756859302520752 -4.104186534881592 0.6368688941001892
3.9476306438446045 1.1625995635986328 0.573236882686615
4.6470723152160645 -2.928683280944824 0.8926150798797607
2.7718613147735596 -4.1593756675720215 0.6465128064155579
3.9473013877868652 1.1467970609664917 0.571112334728241
4.619513511657715 -2.9350264072418213 0.8903622627258301
2.7618796825408936 -4.177495956420898 0.650417685508728
3.9515738487243652 1.1323491334915161 0.5703948736190796
4.5876851081848145 -2.9384617805480957 0.8882498145103455
2.730048179626465 -4.162430763244629 0.6491603255271912
3.329850673675537 2.8109548091888428 0.388912558555603
3.951122760772705 1.116565465927124 0.5682744979858398
4.573123455047607 -2.951697826385498 0.8883952498435974
2.7172915935516357 -4.176279067993164 0.6524158716201782
3.2982943058013916 2.7636756896972656 0.3817702829837799
3.960055351257324 1.103432536125183 0.5682424902915955
4.582694053649902 -2.9817252159118652 0.8943309783935547
2.7070953845977783 -4.194156169891357 0.6571993231773376
3.3726742267608643 2.8070156574249268 0.3869844973087311
3.964264154434204 1.088963270187378 0.5668074488639832
4.600223064422607 -3.0171866416931152 0.9028617143630981
2.6861114501953125 -4.195314407348633 0.6593720316886902
3.9824819564819336 1.0797775983810425 0.5666957497596741
2.657306671142578 -4.184016227722168 0.6578218340873718
2.2826361656188965 -1.521178126335144 0.45165255665779114
2.620635509490967 -4.15988826751709 0.6551336050033569
2.2813425064086914 -1.5318429470062256 0.45294445753097534
2.641955614089966 -4.228012561798096 0.6669899225234985
2.259239912033081 -1.5290454626083374 0.45064401626586914
2.6027004718780518 -4.199362754821777 0.6644721031188965
3.9940240383148193 1.0195488929748535 0.5602604150772095
2.2535552978515625 -1.5372711420059204 0.45112013816833496
2.5845143795013428 -4.2043561935424805 0.6663898229598999
3.9974777698516846 1.0063223838806152 0.5595409870147705
2.2396466732025146 -1.539842128753662 0.45043736696243286
2.574124574661255 -4.222062587738037 0.6694540977478027
4.00123405456543 0.9916876554489136 0.5588214993476868
2.226083517074585 -1.5419882535934448 0.44927504658699036
2.54050612449646 -4.201490879058838 0.6673294305801392
4.005031108856201 0.9770618677139282 0.5573825240135193
2.220223903656006 -1.5500019788742065 0.45069289207458496
2.5426838397979736 -4.240113258361816 0.675494909286499
4.00886869430542 0.9624441862106323 0.5552238821983337
2.2266290187835693 -1.5666435956954956 0.4531556963920593
2.526944875717163 -4.2490997314453125 0.6780835390090942
4.0172858238220215 0.948905885219574 0.5551708340644836
2.2327470779418945 -1.5832144021987915 0.45705169439315796
2.486011505126953 -4.21536111831665 0.6738516092300415
4.01600456237793 0.9330758452415466 0.5537847876548767
4.5905561447143555 -0.9206169247627258 0.7708961367607117
2.234889268875122 -1.5970755815505981 0.4591781497001648
2.4728665351867676 -4.228414535522461 0.6770985126495361
4.019773483276367 0.9184361100196838 0.550906240940094
4.596818923950195 -0.9394116401672363 0.7725208401679993
2.2411768436431885 -1.6134165525436401 0.4626152515411377
2.472080707550049 -4.262848377227783 0.6837865710258484
4.023393154144287 0.903759777545929 0.548747181892395
4.613229274749756 -0.9595531225204468 0.7733030915260315
2.2552061080932617 -1.636098861694336 0.4667457640171051
2.468604564666748 -4.29303503036499 0.6898158192634583
4.036452293395996 0.891165018081665 0.5493448376655579
4.614716529846191 -0.9758386015892029 0.7749360203742981
2.2649853229522705 -1.655898094177246 0.4710295796394348
2.4380173683166504 -4.276033401489258 0.6873950958251953
4.030096530914307 0.8742832541465759 0.5473077297210693
4.615799903869629 -0.9937557578086853 0.7765706777572632
2.2707440853118896 -1.6729135513305664 0.4740053117275238
2.401797294616699 -4.2503533363342285 0.6861233711242676
4.043343544006348 0.8616521954536438 0.5457373261451721
4.622030735015869 -1.0128370523452759 0.776542067527771
2.264824151992798 -1.6807805299758911 0.474497526884079
2.393404245376587 -4.271981716156006 0.6890655755996704
4.046753883361816 0.8468852639198303 0.5435726642608643
4.628231048583984 -1.0311402082443237 0.7773339152336121
2.274376392364502 -1.7008317708969116 0.4783113896846771
2.3775551319122314 -4.280409336090088 0.6916294097900391
4.050108909606934 0.8321045637130737 0.5414077639579773
4.639254570007324 -1.0514585971832275 0.7772699594497681
2.275935649871826 -1.715040683746338 0.48046958446502686
2.367260217666626 -4.297143459320068 0.6947407126426697
4.053123474121094 0.8187254667282104 0.5392427444458008
4.6451191902160645 -1.0707025527954102 0.7780506014823914
2.2739295959472656 -1.7260065078735352 0.48080262541770935
2.3347110748291016 -4.275059223175049 0.6923839449882507
4.051692962646484 0.8029916286468506 0.5349918603897095
4.6461005210876465 -1.088877558708191 0.7780231833457947
2.2792701721191406 -1.743264079093933 0.4837946593761444
2.3094849586486816 -4.265962600708008 0.6912627220153809
4.052833080291748 0.802482545375824 0.5270609259605408
4.652743816375732 -1.0904344320297241 0.7671531438827515
2.2802417278289795 -1.7433764934539795 0.4787856936454773
2.3318498134613037 -4.305479049682617 0.6916294097900391
4.050134658813477 0.8173860311508179 0.524897575378418
4.647737503051758 -1.0713061094284058 0.7614061832427979
2.2712960243225098 -1.7233827114105225 0.47250962257385254
2.345529079437256 -4.293086528778076 0.6866613030433655
4.047290325164795 0.8322618007659912 0.5234552621841431
4.632757663726807 -1.0499861240386963 0.7557662725448608
2.2699785232543945 -1.709309458732605 0.4688909649848938
2.3305206298828125 -4.228705406188965 0.6725704073905945
4.04412317276001 0.8470714688301086 0.5241764187812805
4.621936321258545 -1.030584454536438 0.7534094452857971
2.2686502933502197 -1.6953153610229492 0.46479159593582153
2.380725383758545 -4.280835151672363 0.6779534816741943
4.036468505859375 0.8601871728897095 0.5221065282821655
4.6263227462768555 -1.0137776136398315 0.7492766976356506
2.262925148010254 -1.6787588596343994 0.4603954255580902
2.4015345573425293 -4.2812347412109375 0.6750410199165344
4.038226127624512 0.8760468363761902 0.5220128893852234
4.615905284881592 -0.9937784671783447 0.7444605827331543
2.2534878253936768 -1.6589874029159546 0.4547284245491028
2.4369566440582275 -4.30730676651001 0.6770355105400085
4.030542850494385 0.888384997844696 0.5206658840179443
4.619726657867432 -0.9777404069900513 0.7419881820678711
2.2558233737945557 -1.6479918956756592 0.4519761800765991
2.430920124053955 -4.260128974914551 0.6666560173034668
4.032100677490234 0.9042373299598694 0.5212916731834412
4.604312896728516 -0.9568601846694946 0.7364214062690735
2.238060712814331 -1.622468113899231 0.4457375705242157
2.4541637897491455 -4.264476299285889 0.6652413606643677
4.024348258972168 0.9172645211219788 0.518504798412323
4.598360538482666 -0.938054621219635 0.7332361936569214
2.236354351043701 -1.6087597608566284 0.4412609934806824
2.4683802127838135 -4.251336097717285 0.659423828125
4.025527000427246 0.9330670833587646 0.5212916731834412
4.597048759460449 -0.9202499389648438 0.7316461205482483
2.2302427291870117 -1.591991662979126 0.43841037154197693
2.4741032123565674 -4.22545051574707 0.6542012095451355
4.021749019622803 0.9492189288139343 0.5212916731834412
2.2327723503112793 -1.5803059339523315 0.4361882209777832
2.488755226135254 -4.211610317230225 0.6501238942146301
4.009018421173096 0.9602603912353516 0.519320547580719
2.2221500873565674 -1.5617531538009644 0.43066883087158203
2.5029971599578857 -4.203819751739502 0.6458545923233032
4.005648136138916 0.9749905467033386 0.5178815722465515
2.228043794631958 -1.5537269115447998 0.4292466640472412
2.555145740509033 -4.2541584968566895 0.6506853699684143
3.9971442222595215 0.9884528517723083 0.5179770588874817
2.233908176422119 -1.5456780195236206 0.42782434821128845
2.545271873474121 -4.202743053436279 0.6407548785209656
3.9936695098876953 1.0023995637893677 0.5179770588874817
2.2558231353759766 -1.5492252111434937 0.42902541160583496
2.5634748935699463 -4.197998523712158 0.6379677057266235
3.9850735664367676 1.0157825946807861 0.5180707573890686
2.253506660461426 -1.5355095863342285 0.42604881525039673
2.5895349979400635 -4.205938339233398 0.6362301707267761
2.2844624519348145 -1.5432109832763672 0.4287552237510681
2.6223340034484863 -4.22116231918335 0.6365936994552612
3.3853559494018555 2.750223159790039 0.3409748375415802
3.0802319049835205 0.8092330694198608 0.40176382660865784
2.281484842300415 -1.5302058458328247 0.4262595772743225
2.61550235748291 -4.179183483123779 0.628069281578064
3.4011898040771484 2.785824775695801 0.34523728489875793
3.9831624031066895 1.0620712041854858 0.5200400352478027
2.6563262939453125 -4.206768035888672 0.6302828788757324
3.341365098953247 2.756368398666382 0.3416607677936554
3.9695794582366943 1.0740482807159424 0.5195062756538391
4.590023994445801 -3.030012607574463 0.8484865427017212
2.6712303161621094 -4.197840213775635 0.6268093585968018
3.3809814453125 2.809936761856079 0.3483065068721771
3.9707798957824707 1.088517427444458 0.5201329588890076
4.576909065246582 -2.9973278045654297 0.839138388633728
2.69760799407959 -4.205183982849121 0.6249493956565857
3.3141660690307617 2.7730393409729004 0.34464558959007263
3.9573092460632324 1.0996907949447632 0.5195963978767395
4.563241958618164 -2.964536190032959 0.8326908349990845
2.6889891624450684 -4.158135890960693 0.6159070730209351
3.3562495708465576 2.8312339782714844 0.35174354910850525
3.9528629779815674 1.1155674457550049 0.5195963978767395
4.5874223709106445 -2.955259084701538 0.8321026563644409
2.6950485706329346 -4.131043434143066 0.6099951863288879
3.953516960144043 1.1314127445220947 0.5202239751815796
4.6070427894592285 -2.944061756134033 0.8297932744026184
2.7458527088165283 -4.175395488739014 0.6144843697547913
2.306159257888794 1.973129153251648 0.24579490721225739
3.9448916912078857 1.1431111097335815 0.5203132629394531
4.646000862121582 -2.9473044872283936 0.8350451588630676
2.754379987716675 -4.158259391784668 0.6106524467468262
3.9547781944274902 1.1617047786712646 0.5236372947692871
4.665755271911621 -2.9359090328216553 0.8317352533340454
2.789130449295044 -4.177384376525879 0.611399233341217
3.940986156463623 1.1733611822128296 0.522377073764801
4.693508625030518 -2.9294137954711914 0.8327879309654236
2.769350051879883 -4.113468647003174 0.6000835299491882
3.9367787837982178 1.1870841979980469 0.5230947136878967
4.712869167327881 -2.9175496101379395 0.8323415517807007
2.804213523864746 -4.132477760314941 0.5999303460121155
3.932401180267334 1.2015053033828735 0.5230947136878967
4.741004943847656 -2.9109854698181152 0.8304569125175476
2.8251819610595703 -4.130712032318115 0.5976294279098511
3.93253493309021 1.2173229455947876 0.5251627564430237
4.760337829589844 -2.8988842964172363 0.8299878239631653
2.8010871410369873 -4.063440799713135 0.5858836770057678
3.9137613773345947 1.2272486686706543 0.5239803791046143
4.779141426086426 -2.88751482963562 0.8295117616653442
2.875572443008423 -4.1389479637146 0.5965022444725037
3.9234182834625244 1.2460891008377075 0.5258811712265015
4.808040618896484 -2.878692865371704 0.829516589641571
2.8896710872650146 -4.123813629150391 0.5906417965888977
3.918649911880493 1.2604045867919922 0.5273181796073914
4.83582067489624 -2.871300220489502 0.830482006072998
2.8963496685028076 -4.101276874542236 0.5862654447555542
3.909288167953491 1.2732226848602295 0.5266828536987305
4.854088306427002 -2.8604178428649902 0.8299761414527893
2.8993680477142334 -4.075286388397217 0.580454409122467
3.899934768676758 1.2852510213851929 0.5274809002876282
4.886270523071289 -2.8553059101104736 0.8306564688682556
2.9318273067474365 -4.089098930358887 0.5812785029411316
3.8998148441314697 1.3010766506195068 0.5288354754447937
4.910045623779297 -2.845109224319458 0.8288732767105103
2.944122552871704 -4.074626922607422 0.5771953463554382
3.890321731567383 1.3137747049331665 0.5281975269317627
4.942636489868164 -2.8386995792388916 0.8304968476295471
2.954840898513794 -4.055070877075195 0.5725519061088562
4.960872173309326 -2.8273370265960693 0.8299456238746643
4.988559722900391 -2.818944215774536 0.8318223357200623
2.623058319091797 -3.5474488735198975 0.49877235293388367
5.020949840545654 -2.813018321990967 0.8313962817192078
2.657083034515381 -3.566049098968506 0.49882346391677856
5.0487847328186035 -2.804349422454834 0.8322398662567139
2.6829020977020264 -3.5719916820526123 0.49793416261672974
3.8701348304748535 1.3849468231201172 0.5338577628135681
5.076624393463135 -2.7955150604248047 0.8330694437026978
2.7021312713623047 -3.5702667236328125 0.4966976046562195
3.869450330734253 1.4014853239059448 0.5345017313957214
5.109785556793213 -2.787102460861206 0.8345948457717896
2.719666004180908 -3.5636162757873535 0.4941193163394928
3.8692619800567627 1.4159488677978516 0.5365839004516602
5.132315158843994 -2.777348041534424 0.8346869945526123
2.73162579536438 -3.5547826290130615 0.4917720556259155
3.8545713424682617 1.4266140460968018 0.5367273092269897
5.15968132019043 -2.768916130065918 0.8354749083518982
2.7539753913879395 -3.5568084716796875 0.4902673363685608
3.8539602756500244 1.4424701929092407 0.53737473487854
5.179049491882324 -2.754909038543701 0.8327921032905579
2.7672550678253174 -3.5470261573791504 0.48634159564971924
3.8577444553375244 1.4600290060043335 0.540109395980835
5.180482387542725 -2.731358528137207 0.8303645253181458
2.7803938388824463 -3.537059783935547 0.4839859902858734
3.8475613594055176 1.4723193645477295 0.540898323059082
5.169031143188477 -2.701155424118042 0.8227834701538086
2.8058955669403076 -3.542698860168457 0.4829702079296112
3.8418798446655273 1.4870821237564087 0.540898323059082
5.1624979972839355 -2.6714138984680176 0.8179605603218079
2.814098596572876 -3.5238988399505615 0.4787593483924866
3.832134485244751 1.4979406595230103 0.5416836738586426
5.149556636810303 -2.6431050300598145 0.8124565482139587
2.8358354568481445 -3.5258076190948486 0.4787634611129761
3.835662603378296 1.5155495405197144 0.5444285869598389
5.141099452972412 -2.616131067276001 0.8096765279769897
2.845818519592285 -3.5117857456207275 0.4750818908214569
3.8299052715301514 1.529527187347412 0.5458681583404541
5.13347053527832 -2.5886058807373047 0.8028830289840698
2.811652183532715 -3.4437429904937744 0.4649145007133484
3.8334665298461914 1.5472646951675415 0.5471803545951843
5.125454902648926 -2.561044454574585 0.7981168627738953
2.7960264682769775 -3.399097442626953 0.457161545753479
3.8182363510131836 1.5574160814285278 0.548747181892395
5.112617015838623 -2.5312552452087402 0.7946677803993225
2.7736589908599854 -3.3468267917633057 0.4499620497226715
3.8033385276794434 1.5676230192184448 0.5474281311035156
5.1045708656311035 -2.5040183067321777 0.7879393696784973
2.7733569145202637 -3.3216068744659424 0.4448818862438202
3.8156912326812744 1.5891003608703613 0.5515091419219971
5.095896244049072 -2.476632833480835 0.785193920135498
2.750490188598633 -3.2697854042053223 0.43627408146858215
3.7917582988739014 1.5946872234344482 0.5495820045471191
5.083117961883545 -2.447432279586792 0.7778236865997314
2.7400906085968018 -3.2332911491394043 0.4304998219013214
3.795011043548584 1.612450122833252 0.550906240940094
5.0746588706970215 -2.420488119125366 0.7711670994758606
2.720419406890869 -3.18520188331604 0.4217917323112488
3.784733533859253 1.6229209899902344 0.5531191229820251
5.069641590118408 -2.3964085578918457 0.7691287994384766
2.7192397117614746 -3.1602916717529297 0.41760510206222534
3.7876768112182617 1.6406440734863281 0.555891215801239
5.065174102783203 -2.3716230392456055 0.7651382088661194
2.704828977584839 -3.1203384399414062 0.4121769666671753
3.7542223930358887 1.6425209045410156 0.5533176064491272
5.055856704711914 -2.344705820083618 0.7624273896217346
2.690253496170044 -3.0806376934051514 0.4053489565849304
5.0467705726623535 -2.31805419921875 0.7568087577819824
2.6775963306427 -3.045699119567871 0.3997737169265747
5.036633491516113 -2.293203115463257 0.7521765828132629
2.6691300868988037 -3.0137217044830322 0.3940201997756958
5.036210060119629 -2.2707622051239014 0.7489013671875
2.6703555583953857 -2.992931842803955 0.3904589116573334
3.711379051208496 1.6882447004318237 0.5556231737136841
5.022897720336914 -2.2405409812927246 0.7436233162879944
2.6591877937316895 -2.9564390182495117 0.38498586416244507
5.007877349853516 -2.2139594554901123 0.7383624315261841
2.6395554542541504 -2.9140889644622803 0.3785907030105591
4.283411026000977 0.0343901664018631 0.6325395107269287
5.001957416534424 -2.1905016899108887 0.7363578081130981
2.633533239364624 -2.8861095905303955 0.37483078241348267
4.293148040771484 0.05020510032773018 0.634000301361084
4.991885185241699 -2.164320230484009 0.7327353954315186
2.620734214782715 -2.8510255813598633 0.3681090474128723
4.287989616394043 0.06586397439241409 0.6332699060440063
4.98659086227417 -2.1403470039367676 0.7269451022148132
2.617811441421509 -2.826978921890259 0.36352670192718506
4.267841815948486 0.0804564505815506 0.6310933232307434
4.985512733459473 -2.118278741836548 0.7237265706062317
2.601076364517212 -2.788336992263794 0.35843831300735474
4.277408123016357 0.09632103890180588 0.6325558423995972
4.961264610290527 -2.0865426063537598 0.7190915942192078
2.5943610668182373 -2.76078200340271 0.35411500930786133
4.267137050628662 0.11173892021179199 0.6310933232307434
4.955267906188965 -2.0626790523529053 0.7161683440208435
2.5874345302581787 -2.733267307281494 0.35047462582588196
4.261865139007568 0.12723369896411896 0.6296178102493286
4.9580864906311035 -2.0435757637023926 0.7136351466178894
2.5769872665405273 -2.7023229598999023 0.3450862765312195
4.266338348388672 0.14227445423603058 0.630348265171051
4.948119640350342 -2.016268730163574 0.7091318964958191
2.5711941719055176 -2.6737334728240967 0.3401961028575897
4.255682468414307 0.1575363278388977 0.630374014377594
4.941218852996826 -1.9943759441375732 0.7052984237670898
2.5628533363342285 -2.6474320888519287 0.33598363399505615
4.250024795532227 0.17292757332324982 0.6303842067718506
4.930196285247803 -1.9689440727233887 0.7017475962638855
2.548285961151123 -2.613149881362915 0.3315313756465912
4.254303455352783 0.18872271478176117 0.6311172246932983
4.919166088104248 -1.9436640739440918 0.6972804069519043
2.5405187606811523 -2.586153507232666 0.327371746301651
4.24395751953125 0.2031094878911972 0.6281681656837463
4.917136192321777 -1.9220561981201172 0.695051908493042
2.529123067855835 -2.5557475090026855 0.32216352224349976
4.2282562255859375 0.21789370477199554 0.6267132759094238
4.915126323699951 -1.9005327224731445 0.6919072866439819
2.51749587059021 -2.5254170894622803 0.3176192343235016
3.6911118030548096 1.9263865947723389 0.5888565182685852
4.227428913116455 0.23338955640792847 0.6267132759094238
4.913022994995117 -1.8790491819381714 0.6887693405151367
2.5092456340789795 -2.4987568855285645 0.31292906403541565
3.692944049835205 1.9437748193740845 0.5917136073112488
4.2116241455078125 0.24800366163253784 0.6252532005310059
4.905754089355469 -1.8566659688949585 0.6859064102172852
2.4972119331359863 -2.4686102867126465 0.3090626001358032
3.6898932456970215 1.9594733715057373 0.5946031808853149
4.215668678283691 0.2630114257335663 0.6259862184524536
4.889533042907715 -1.8300670385360718 0.6808424592018127
2.4961204528808594 -2.448652505874634 0.3059166669845581
3.6737771034240723 1.9682111740112305 0.594649076461792
4.219612121582031 0.27878695726394653 0.6267192363739014
4.882258415222168 -1.8069709539413452 0.6789027452468872
2.487311363220215 -2.4221856594085693 0.3025258779525757
3.666447162628174 1.9816135168075562 0.5953764915466309
4.203650951385498 0.2932106554508209 0.6252556443214417
4.8752121925354 -1.784074306488037 0.6742448806762695
2.485541820526123 -2.4027762413024902 0.29941368103027344
3.676358938217163 2.004415988922119 0.5996665358543396
4.202548027038574 0.3086158037185669 0.6252556443214417
4.867951393127441 -1.761212944984436 0.6705060005187988
2.4729156494140625 -2.373098611831665 0.2944324016571045
3.664191722869873 2.0152394771575928 0.602607250213623
4.201335906982422 0.32327520847320557 0.6259911060333252
4.855587959289551 -1.736640214920044 0.6688370704650879
2.467242956161499 -2.3503448963165283 0.29153111577033997
3.665436029434204 2.0334572792053223 0.6040335893630981
4.200014114379883 0.33866292238235474 0.626726508140564
4.852789878845215 -1.7156040668487549 0.6657542586326599
2.4614720344543457 -2.3276987075805664 0.2880524694919586
3.623487710952759 2.026759147644043 0.6005022525787354
4.198744773864746 0.3540544807910919 0.626726508140564
4.840135097503662 -1.6921467781066895 0.6622937917709351
2.444669246673584 -2.2948944568634033 0.28333163261413574
4.197309494018555 0.36943164467811584 0.6274619102478027
4.837148666381836 -1.671231746673584 0.6592264175415039
2.4458460807800293 -2.2791926860809326 0.2813226580619812
4.186144828796387 0.3831791579723358 0.6259890794754028
4.829270839691162 -1.6487219333648682 0.6564193964004517
2.436466932296753 -2.253035545349121 0.27633050084114075
2.3729920387268066 1.3617767095565796 0.3996224105358124
4.184603691101074 0.3985092341899872 0.6267227530479431
4.821184158325195 -1.6262556314468384 0.6545056700706482
2.4227542877197266 -2.22393798828125 0.27269309759140015
2.372145891189575 1.372873306274414 0.401301771402359
4.173272132873535 0.4128701090812683 0.6252480745315552
4.817810535430908 -1.6054744720458984 0.6523435115814209
2.430924415588379 -2.2150752544403076 0.27211910486221313
2.3845527172088623 1.3906300067901611 0.40516287088394165
4.17169713973999 0.427423894405365 0.6259799599647522
4.804927825927734 -1.5816386938095093 0.6489123702049255
2.428079605102539 -2.196248769760132 0.2685965895652771
2.3792564868927 1.3992527723312378 0.4066081643104553
4.165076732635498 0.44217753410339355 0.6259728670120239
4.791769027709961 -1.5587897300720215 0.6446087956428528
2.4028446674346924 -2.157463550567627 0.26322636008262634
2.382437229156494 1.4129009246826172 0.409515917301178
4.1683430671691895 0.45798036456108093 0.626711905002594
4.788113117218018 -1.5382168292999268 0.6424620151519775
2.3996431827545166 -2.1387553215026855 0.26088568568229675
2.381613254547119 1.4236729145050049 0.41121575236320496
4.15686559677124 0.4706755578517914 0.6259639859199524
4.784477233886719 -1.5177255868911743 0.6394428014755249
2.4001026153564453 -2.123431444168091 0.2583988308906555
2.393137216567993 1.4424935579299927 0.4156109392642975
4.155004024505615 0.48589539527893066 0.6266940832138062
4.790114402770996 -1.5002126693725586 0.6385667324066162
2.38586688041687 -2.094559907913208 0.25432536005973816
2.39609956741333 1.456278681755066 0.4185502827167511
4.148264408111572 0.4997914731502533 0.6266825199127197
4.776519298553467 -1.4767528772354126 0.636915385723114
2.38232159614563 -2.076035976409912 0.2520245611667633
2.3990538120269775 1.4701420068740845 0.4210088849067688
4.1462249755859375 0.5164396166801453 0.6266825199127197
4.7726240158081055 -1.456405520439148 0.6339098811149597
2.382474899291992 -2.06085467338562 0.24958017468452454
2.397667646408081 1.4814079999923706 0.4232245087623596
4.124546051025391 0.5276349186897278 0.6258933544158936
4.768536567687988 -1.4360743761062622 0.6317805051803589
2.378732919692993 -2.042424201965332 0.24730107188224792
4.132184982299805 0.5447462201118469 0.6281092166900635
4.754608154296875 -1.4137965440750122 0.6283977031707764
2.3673319816589355 -2.017608880996704 0.24370664358139038
4.140068531036377 0.5612308382987976 0.6288702487945557
4.755102634429932 -1.3949949741363525 0.6269043684005737
2.371002435684204 -2.005781412124634 0.2416900247335434
4.128172397613525 0.5735657215118408 0.6288365721702576
4.7506537437438965 -1.374799370765686 0.6256492733955383
2.359314203262329 -1.9811034202575684 0.23867490887641907
4.106356620788574 0.5858835577964783 0.6265767812728882
4.746225833892822 -1.3546851873397827 0.6235328316688538
2.3474440574645996 -1.9565107822418213 0.23621052503585815
4.099077224731445 0.6009135246276855 0.6265531182289124
4.72738790512085 -1.3305894136428833 0.6195423007011414
2.339329242706299 -1.9352614879608154 0.23307953774929047
4.106731414794922 0.6159536242485046 0.6287732124328613
4.722777366638184 -1.3106297254562378 0.6174353361129761
2.3352761268615723 -1.9168527126312256 0.23034949600696564
4.094566345214844 0.6294824481010437 0.6279991865158081
4.712968826293945 -1.2902065515518188 0.6155604720115662
2.3307831287384033 -1.898909091949463 0.22763501107692719
4.097005844116211 0.6452375054359436 0.6294724345207214
4.708190441131592 -1.2703672647476196 0.6134595274925232
2.3222815990448 -1.8778636455535889 0.22508253157138824
4.084412574768066 0.6593359112739563 0.6301383376121521
4.707917213439941 -1.2518000602722168 0.6136857271194458
2.3175442218780518 -1.8600260019302368 0.22291795909404755
4.0872979164123535 0.6737164258956909 0.6294452548027039
4.703185558319092 -1.2321031093597412 0.6098902821540833
2.3088369369506836 -1.8391648530960083 0.21987633407115936
4.089349269866943 0.689459502696991 0.6323677897453308
4.693155765533447 -1.211111307144165 0.608869194984436
2.3038575649261475 -1.8214366436004639 0.21824949979782104
4.086686134338379 0.704424262046814 0.6330915689468384
4.678432941436768 -1.1890398263931274 0.6055338978767395
2.3027617931365967 -1.806894302368164 0.21597585082054138
4.069490432739258 0.7160964012145996 0.631549060344696
4.678049087524414 -1.1707056760787964 0.6040698885917664
2.294032335281372 -1.7858552932739258 0.2129819393157959
4.066512107849121 0.7309483289718628 0.6337124705314636
4.667656421661377 -1.1508063077926636 0.6022054553031921
2.284836530685425 -1.7652852535247803 0.21051281690597534
4.06369686126709 0.7458279728889465 0.6344335675239563
4.667123317718506 -1.1325454711914062 0.6007457971572876
2.287362813949585 -1.7538869380950928 0.20964615046977997
4.060827255249023 0.7606968283653259 0.635154664516449
4.651839256286621 -1.110798716545105 0.5990980863571167
2.281956911087036 -1.7364978790283203 0.20705662667751312
4.058038234710693 0.7748462557792664 0.6358757615089417
4.6463212966918945 -1.0914959907531738 0.5970221757888794
2.2803757190704346 -1.7221331596374512 0.205837681889534
4.045143127441406 0.7877616286277771 0.6365123987197876
4.635687351226807 -1.071084976196289 0.595990777015686
2.274756908416748 -1.704833745956421 0.20376771688461304
4.04211950302124 0.8025609254837036 0.637231707572937
4.629823207855225 -1.0527198314666748 0.5939191579818726
2.2690136432647705 -1.687577247619629 0.2022017240524292
3.460791826248169 2.5015153884887695 0.6862695813179016
4.0390753746032715 0.8166215419769287 0.6386701464653015
4.619225978851318 -1.0325193405151367 0.5912312865257263
2.267242908477783 -1.6733887195587158 0.20001305639743805
2.1608376502990723 3.819267749786377 0.6073476076126099
3.488007068634033 2.538839101791382 0.6964219808578491
4.045404434204102 0.8333459496498108 0.6423644423484802
4.618032455444336 -1.0144953727722168 0.5914367437362671
2.253298282623291 -1.6503732204437256 0.19726809859275818
2.1569268703460693 3.8435986042022705 0.6139360666275024
3.493210554122925 2.5641415119171143 0.7033910155296326
4.032323837280273 0.8460695147514343 0.6429851055145264
4.587672233581543 -0.9902137517929077 0.5879116654396057
2.2553253173828125 -1.6391911506652832 0.19642919301986694
2.132986307144165 3.833794355392456 0.6142397522926331
3.4793267250061035 2.5736265182495117 0.7063668370246887
4.024035453796387 0.8597404360771179 0.6443687081336975
2.237046241760254 -1.6134085655212402 0.19432082772254944
2.1043131351470947 3.815103530883789 0.6138826012611389
3.474433183670044 2.587876558303833 0.7094407677650452
4.025726795196533 0.8748067021369934 0.6458613872528076
2.23085880279541 -1.5965492725372314 0.19183029234409332
2.077467918395996 3.8008697032928467 0.6149309277534485
3.476365566253662 2.609180450439453 0.7148994207382202
4.012516975402832 0.8873496651649475 0.6464642286300659
2.0701394081115723 3.787461996078491 0.6158360838890076
3.471719741821289 2.6056935787200928 0.7193918824195862
4.021275520324707 0.8892865180969238 0.6537693738937378
2.232464075088501 -1.5853570699691772 0.19434896111488342
2.11034893989563 3.8276259899139404 0.6228417754173279
3.4807941913604736 2.5935590267181396 0.7193918824195862
4.024172782897949 0.8744690418243408 0.6559256911277771
2.2418529987335205 -1.6061930656433105 0.19865311682224274
2.134145975112915 3.8374552726745605 0.6233642101287842
3.490377426147461 2.5808584690093994 0.7186342477798462
4.03206729888916 0.860720694065094 0.6574316620826721
2.2479958534240723 -1.6230957508087158 0.20118261873722076
2.1532530784606934 3.8386213779449463 0.621697187423706
3.4800283908843994 2.553530693054199 0.7137977480888367
4.030362606048584 0.8449236154556274 0.6566444039344788
4.623615741729736 -1.0013506412506104 0.6102268099784851
2.2459497451782227 -1.6341750621795654 0.20348359644412994
3.4974405765533447 2.5466392040252686 0.7146741151809692
4.038010597229004 0.8318228125572205 0.6581512689590454
4.629286289215088 -1.0203559398651123 0.6139882206916809
2.2555973529815674 -1.654477834701538 0.2073860764503479
3.4950573444366455 2.5253541469573975 0.7099717855453491
4.045984745025635 0.8180184960365295 0.658219039440155
4.630820274353027 -1.0368082523345947 0.6138023138046265
2.2781450748443604 -1.682663917541504 0.2104680985212326
3.5000431537628174 2.5104076862335205 0.7076560258865356
4.048842906951904 0.8031613230705261 0.6589395403862
4.640809535980225 -1.0586258172988892 0.6182188391685486
2.275252342224121 -1.694685697555542 0.21281933784484863
3.4892215728759766 2.4833285808563232 0.7028555274009705
4.056718826293945 0.7892810702323914 0.6590064167976379
4.646347522735596 -1.077820062637329 0.621171772480011
2.284886598587036 -1.7149178981781006 0.21581131219863892
4.054486274719238 0.774168074131012 0.6589395403862
4.652103424072266 -1.096281886100769 0.6232973337173462
2.2824716567993164 -1.7262197732925415 0.21768635511398315
4.057409763336182 0.7593235969543457 0.658219039440155
4.667234420776367 -1.1179195642471313 0.6267213225364685
2.2915947437286377 -1.7469916343688965 0.22071214020252228
4.069765567779541 0.746207594871521 0.6605159640312195
4.682267665863037 -1.139682412147522 0.63015216588974
2.2890377044677734 -1.758345365524292 0.222605362534523
4.072586536407471 0.7313064932823181 0.6597937345504761
4.677737712860107 -1.1567566394805908 0.632675290107727
2.3021645545959473 -1.7818835973739624 0.22656014561653137
4.075001239776611 0.7170661091804504 0.6605159640312195
4.68819522857666 -1.1758536100387573 0.6354716420173645
2.3040122985839844 -1.795562982559204 0.22886551916599274
4.0777153968811035 0.7021451592445374 0.6597937345504761
4.692935943603516 -1.1970866918563843 0.6376203894615173
2.3006107807159424 -1.8078027963638306 0.23078812658786774
4.08988618850708 0.6888158321380615 0.6620923280715942
4.70258903503418 -1.217923641204834 0.6421219706535339
2.3170006275177 -1.835115671157837 0.2346947342157364
4.092724323272705 0.6738771200180054 0.6599206328392029
4.708004474639893 -1.2360000610351562 0.6442819237709045
2.322561264038086 -1.8520861864089966 0.2364005446434021
4.094938278198242 0.6595685482025146 0.66064453125
4.708123207092285 -1.2544946670532227 0.6457884907722473
2.331169366836548 -1.8729690313339233 0.24007484316825867
4.102319717407227 0.645340621471405 0.6607062816619873
4.717184543609619 -1.2772111892700195 0.6494652032852173
2.3428637981414795 -1.8978909254074097 0.24418048560619354
4.109424114227295 0.6310325264930725 0.6622175574302673
4.7264790534973145 -1.2983399629592896 0.6540077924728394
2.3435142040252686 -1.9126861095428467 0.2465715855360031
4.101942539215088 0.6145033240318298 0.66064453125
4.740906238555908 -1.320117712020874 0.6575118899345398
2.3475983142852783 -1.931085228919983 0.2493819147348404
4.113719940185547 0.6015934348106384 0.6629431247711182
4.745464324951172 -1.340147852897644 0.6596968173980713
2.3480775356292725 -1.9459525346755981 0.2517963647842407
4.120899677276611 0.5872246623039246 0.6630039811134338
4.759466171264648 -1.3629571199417114 0.6632129549980164
2.3676021099090576 -1.9768158197402954 0.25629138946533203
4.118019104003906 0.5714223980903625 0.6629431247711182
4.763622283935547 -1.3830586671829224 0.6671380400657654
2.371676445007324 -1.9950156211853027 0.2591562867164612
4.125093460083008 0.5570014119148254 0.6630039811134338
4.767917156219482 -1.4032742977142334 0.6693384051322937
2.3870508670806885 -2.0229344367980957 0.263294517993927
2.3725597858428955 1.4779375791549683 0.4422217011451721
4.131908893585205 0.5432424545288086 0.6637904644012451
4.7720136642456055 -1.4235060214996338 0.6724114418029785
2.3908824920654297 -2.0412850379943848 0.26619839668273926
2.3860459327697754 1.475378394126892 0.4423154890537262
4.138884544372559 0.5287349820137024 0.6638487577438354
4.776641368865967 -1.4421530961990356 0.6746204495429993
2.3911917209625244 -2.056023359298706 0.26869338750839233
2.366877317428589 1.4504241943359375 0.4361897110939026
4.145810604095459 0.514183759689331 0.6639052629470825
4.789651393890381 -1.4670861959457397 0.6781744956970215
2.4016337394714355 -2.0818281173706055 0.27247995138168335
2.3801140785217285 1.4477009773254395 0.4377419948577881
4.152454376220703 0.499561071395874 0.6654199957847595
4.789120674133301 -1.4852288961410522 0.6797203421592712
2.401383876800537 -2.097076177597046 0.27500349283218384
2.3856000900268555 1.4390859603881836 0.43628326058387756
4.154172897338867 0.48506322503089905 0.6654199957847595
4.8023247718811035 -1.5086400508880615 0.6841641664505005
2.404829502105713 -2.115670680999756 0.2774106562137604
2.3825106620788574 1.4253385066986084 0.43376708030700684
4.1707587242126465 0.4715113639831543 0.6670442819595337
4.810812473297119 -1.5307015180587769 0.6870654821395874
2.415588855743408 -2.1408934593200684 0.2812579274177551
2.379169225692749 1.412085771560669 0.43077486753463745
4.172574520111084 0.45623424649238586 0.6663117408752441
4.809771537780762 -1.5498065948486328 0.6886216998100281
2.415046453475952 -2.156268835067749 0.2838212251663208
2.375878095626831 1.3983821868896484 0.4287552237510681
4.1741414070129395 0.44166648387908936 0.6663117408752441
4.817958354949951 -1.5719598531723022 0.6924161314964294
2.4362587928771973 -2.192077875137329 0.28903043270111084
2.368250608444214 1.3822308778762817 0.42597150802612305
4.17561674118042 0.42635267972946167 0.6670442819595337
4.830634117126465 -1.5957090854644775 0.697787344455719
2.4391655921936035 -2.2109248638153076 0.29207196831703186
2.3777058124542236 1.3760911226272583 0.4257800877094269
4.187096118927002 0.41202402114868164 0.6678794622421265
4.839527606964111 -1.6164661645889282 0.6989352107048035
2.446422576904297 -2.2323250770568848 0.29557353258132935
2.361497402191162 1.355180263519287 0.42052555084228516
4.183661460876465 0.396209180355072 0.6670956611633301
4.842723846435547 -1.6372877359390259 0.70207679271698
2.445481061935425 -2.2479474544525146 0.2976219952106476
2.439591646194458 1.3881347179412842 0.4325203001499176
4.185135364532471 0.3816136419773102 0.6663621664047241
4.850923538208008 -1.658950924873352 0.7050125598907471
2.4626874923706055 -2.2804737091064453 0.3025028705596924
4.191309452056885 0.36669203639030457 0.6678794622421265
4.857916355133057 -1.6831541061401367 0.7097480893135071
2.4715583324432373 -2.3071861267089844 0.30710750818252563
3.6574339866638184 2.0465846061706543 0.6420773863792419
4.187936305999756 0.350934773683548 0.6656286716461182
4.861063003540039 -1.7042251825332642 0.7111155986785889
2.4775564670562744 -2.3298373222351074 0.3095102608203888
3.660687208175659 2.03082275390625 0.6405895948410034
4.204078197479248 0.33677512407302856 0.6672390699386597
4.869272708892822 -1.7252564430236816 0.7140684723854065
2.4800572395324707 -2.348555326461792 0.3138505220413208
3.6597371101379395 2.012789249420166 0.6368901133537292
4.205228328704834 0.32209810614585876 0.6672390699386597
4.871396541595459 -1.7480504512786865 0.7172444462776184
2.4777328968048096 -2.3652920722961426 0.3159612715244293
3.658604383468628 1.9947357177734375 0.633928120136261
4.2111897468566895 0.3070336878299713 0.6687573194503784
4.883460521697998 -1.7726094722747803 0.7208966016769409
2.50840163230896 -2.412203073501587 0.32283517718315125
3.6617372035980225 1.9790679216384888 0.6317232847213745
4.212286949157715 0.29159682989120483 0.6687573194503784
4.904588222503662 -1.8006504774093628 0.7268438339233398
2.4958462715148926 -2.4177987575531006 0.3241928517818451
3.681791067123413 1.9733318090438843 0.6332449913024902
4.223299503326416 0.2768096625804901 0.6695830225944519
4.906882286071777 -1.8219290971755981 0.7309623956680298
2.5046191215515137 -2.444155216217041 0.3289583921432495
3.6805593967437744 1.9553403854370117 0.6295640468597412
4.224239826202393 0.26206591725349426 0.6695830225944519
4.909765243530273 -1.8425259590148926 0.7323455214500427
2.5204107761383057 -2.477665662765503 0.33346766233444214
3.6478524208068848 1.922480821609497 0.6214034557342529
4.2252888679504395 0.24658836424350739 0.6688442826271057
4.921789169311523 -1.865681529045105 0.7378677725791931
2.5328052043914795 -2.5072948932647705 0.3387738764286041
4.236027240753174 0.2316395789384842 0.6704052686691284
4.933412551879883 -1.890796422958374 0.7406443357467651
2.541137218475342 -2.534050703048706 0.34239232540130615
4.241742134094238 0.21710412204265594 0.6711856126785278
4.934773921966553 -1.9140725135803223 0.7438802123069763
2.5518360137939453 -2.565232276916504 0.34776780009269714
4.25225830078125 0.20201905071735382 0.6734895706176758
4.937499046325684 -1.933990478515625 0.7461974620819092
2.5606777667999268 -2.59125018119812 0.35206711292266846
4.257904052734375 0.1866486668586731 0.6742709279060364
4.947863578796387 -1.9609960317611694 0.7508423328399658
2.5675880908966064 -2.619189977645874 0.35575225949287415
4.2490410804748535 0.1706591248512268 0.6704817414283752
4.950058937072754 -1.981886863708496 0.7531697750091553
2.5821352005004883 -2.653414249420166 0.36106982827186584
4.264418125152588 0.15636911988258362 0.6728178858757019
4.960874080657959 -2.007345199584961 0.7578352093696594
2.582677125930786 -2.673506498336792 0.3638233244419098
4.259791851043701 0.1405675709247589 0.6735270619392395
4.972276210784912 -2.0311734676361084 0.7625142931938171
2.5977823734283447 -2.707050323486328 0.36919721961021423
4.255459308624268 0.12481236457824707 0.6720035076141357
4.977684497833252 -2.056737184524536 0.7655627131462097
2.6038691997528076 -2.73528790473938 0.37428203225135803
4.270661354064941 0.11108531802892685 0.6743422150611877
4.984295845031738 -2.078845977783203 0.7695587277412415
2.604424238204956 -2.7550644874572754 0.3777465522289276
4.275960922241211 0.09628845006227493 0.6751218438148499
4.985517501831055 -2.100839853286743 0.7728580236434937
2.6213629245758057 -2.7934212684631348 0.3843868672847748
4.291126728057861 0.07939700037240982 0.6774605512619019
4.999687194824219 -2.1304848194122314 0.7773420810699463
2.630328416824341 -2.8256213665008545 0.38940343260765076
4.276691913604736 0.0634506568312645 0.6743753552436829
5.010156154632568 -2.1556410789489746 0.7820778489112854
2.640118360519409 -2.8570642471313477 0.3937722146511078
4.301572322845459 0.04955274239182472 0.6782690286636353
5.007269382476807 -2.1741058826446533 0.7846930623054504
2.653989315032959 -2.891251564025879 0.40003708004951477
4.301730632781982 0.03303556889295578 0.6782690286636353
5.029970645904541 -2.208002805709839 0.7915905714035034
2.662360668182373 -2.9238452911376953 0.40445953607559204
5.035417079925537 -2.2324411869049072 0.7937300205230713
2.668112277984619 -2.951822519302368 0.40978124737739563
3.756667137145996 1.7080543041229248 0.5990844964981079
5.044886589050293 -2.258800745010376 0.7994768619537354
2.6837031841278076 -2.9910361766815186 0.4159832298755646
3.7579896450042725 1.693639874458313 0.5969273447990417
5.064027309417725 -2.2886245250701904 0.8037712574005127
2.6918463706970215 -3.023386240005493 0.42189836502075195
3.76377534866333 1.6812536716461182 0.5954884886741638
5.065159320831299 -2.309393882751465 0.8071460127830505
2.701524019241333 -3.054591655731201 0.4257199168205261
3.7699122428894043 1.6674474477767944 0.5954884886741638
5.06171178817749 -2.328127384185791 0.8098082542419434
2.7097973823547363 -3.086670160293579 0.431702584028244
3.7763779163360596 1.653784990310669 0.5926104784011841
5.065529823303223 -2.354565143585205 0.8139157891273499
2.7179672718048096 -3.118959665298462 0.43628251552581787
3.768695831298828 1.6347664594650269 0.5890423655509949
5.083739280700684 -2.3857269287109375 0.8182412385940552
2.7290868759155273 -3.1549923419952393 0.4428655803203583
3.788494825363159 1.6268826723098755 0.5897322297096252
5.0882463455200195 -2.410637617111206 0.8213868141174316
2.746554136276245 -3.198806047439575 0.4490879476070404
3.7944321632385254 1.6129862070083618 0.5897322297096252
5.10117244720459 -2.439695119857788 0.8289434313774109
2.7636821269989014 -3.2427258491516113 0.4560851752758026
3.805260181427002 1.6011472940444946 0.5875581502914429
5.115333557128906 -2.467344045639038 0.8325695991516113
2.768871307373047 -3.2707228660583496 0.46024203300476074
3.8019635677337646 1.583383321762085 0.5861491560935974
5.119772434234619 -2.491551637649536 0.8367328643798828
2.7917823791503906 -3.3224034309387207 0.469902366399765
3.7941999435424805 1.5638563632965088 0.5826030969619751
5.123663425445557 -2.5167133808135986 0.8409065008163452
2.804898738861084 -3.362962007522583 0.4765014350414276
3.823108196258545 1.5594033002853394 0.5839552283287048
5.1407318115234375 -2.548527240753174 0.8472815155982971
2.8234949111938477 -3.411806344985962 0.4842289686203003
3.819171905517578 1.5430455207824707 0.5818358659744263
5.14436149597168 -2.5738587379455566 0.8514808416366577
2.845456123352051 -3.4641151428222656 0.49333691596984863
3.8252573013305664 1.5284451246261597 0.5803980231285095
5.15228796005249 -2.6014792919158936 0.8564241528511047
2.8608953952789307 -3.50905442237854 0.49983978271484375
3.8304927349090576 1.5158261060714722 0.578960120677948
5.169618606567383 -2.632915735244751 0.8608273267745972
2.8415424823760986 -3.5115182399749756 0.5018962025642395
3.827418565750122 1.4968674182891846 0.5768511295318604
5.176331520080566 -2.662557601928711 0.8657947778701782
2.827258825302124 -3.522691488265991 0.504261314868927
3.841689348220825 1.4877793788909912 0.5775220990180969
5.184765815734863 -2.6886754035949707 0.8707758784294128
2.8061046600341797 -3.520184278488159 0.5049542188644409
3.8478190898895264 1.4724180698394775 0.5760840177536011
5.195565223693848 -2.7207961082458496 0.8765097856521606
2.791731834411621 -3.531142473220825 0.5080969333648682
3.848745822906494 1.4566233158111572 0.5739551186561584
5.189659595489502 -2.741987466812134 0.8792977333068848
2.7755942344665527 -3.5373029708862305 0.5091056823730469
3.8491055965423584 1.4421851634979248 0.5718297362327576
5.167309761047363 -2.752136468887329 0.8780972361564636
2.7605762481689453 -3.542288064956665 0.5116785168647766
3.8594460487365723 1.429184079170227 0.5710820555686951
5.130302906036377 -2.757765293121338 0.8756806254386902
2.7401487827301025 -3.5453381538391113 0.5121105909347534
3.8597006797790527 1.41474187374115 0.5689600110054016
5.103472709655762 -2.765195846557617 0.8747333884239197
2.7275383472442627 -3.5545971393585205 0.5152387022972107
3.8697032928466797 1.4023410081863403 0.5682086944580078
5.0790510177612305 -2.778395414352417 0.8745190501213074
2.710697650909424 -3.5608770847320557 0.5170108079910278
3.8708245754241943 1.3851935863494873 0.566089928150177
5.038266658782959 -2.780125617980957 0.8712999820709229
2.684868574142456 -3.5551888942718506 0.5170482993125916
5.024434566497803 -2.794267416000366 0.8725584149360657
2.6579484939575195 -3.5439181327819824 0.5172589421272278
