# .PCD v0.7 - Point Cloud Data file format
VERSION 0.7
FIELDS x y z
SIZE 4 4 4
TYPE F F F
COUNT 1 1 1
WIDTH 813
HEIGHT 1
VIEWPOINT 0 0 0 1 0 0 0
POINTS 813
DATA ascii
1.1742838621139526 -1.5303564071655273 -0.06297949701547623
0.7316266894340515 0.7212300300598145 -0.07382167130708694
1.156286358833313 0.4213109612464905 -0.10355693101882935
1.8585494756698608 -0.14039748907089233 -0.15159855782985687
3.875943660736084 -2.0861082077026367 -0.27076053619384766
1.1884697675704956 -1.5382550954818726 -0.06584392488002777
0.7362291812896729 0.730851948261261 -0.0736331194639206
1.1500930786132812 0.4238356947898865 -0.1027098298072815
1.8640223741531372 -0.13394179940223694 -0.15200389921665192
3.8838000297546387 -2.071143388748169 -0.2730652093887329
1.2032727003097534 -1.5456719398498535 -0.06806113570928574
0.7335906624794006 0.7335906624794006 -0.07272780686616898
1.12983238697052 0.4213036000728607 -0.10040838271379471
1.8545567989349365 -0.12643100321292877 -0.15119321644306183
3.9088852405548096 -2.0661556720733643 -0.2766186594963074
1.218129277229309 -1.552979588508606 -0.07099342346191406
0.7271977066993713 0.7330596446990967 -0.07093648612499237
1.1188573837280273 0.4223347008228302 -0.09895239770412445
1.8600170612335205 -0.11897799372673035 -0.15192385017871857
3.921396493911743 -2.0526716709136963 -0.28002098202705383
0.7212960124015808 0.7319490313529968 -0.06987638771533966
1.1081864833831787 0.4225105047225952 -0.0975068137049675
1.8504917621612549 -0.11156010627746582 -0.1511114239692688
3.9457650184631348 -2.0487864017486572 -0.2836117148399353
0.7256279587745667 0.7417634129524231 -0.06964930146932602
1.101773977279663 0.4253601133823395 -0.09689100086688995
1.8607861995697021 -0.10533729195594788 -0.15257444977760315
3.9626104831695557 -2.037379503250122 -0.288136750459671
2.004973888397217 -2.4972527027130127 -0.12582771480083466
0.719470739364624 0.740882158279419 -0.06841323524713516
1.1004043817520142 0.42902976274490356 -0.09627259522676468
1.8711297512054443 -0.09871671348810196 -0.15339036285877228
3.996234893798828 -2.037062168121338 -0.2924213409423828
2.01003360748291 -2.4866182804107666 -0.12842172384262085
0.7133288383483887 0.7399648427963257 -0.06718583405017853
1.0895826816558838 0.4294177293777466 -0.09505137801170349
1.8665016889572144 -0.09161370992660522 -0.15298239886760712
4.013151168823242 -2.02543044090271 -0.2954257130622864
2.0041327476501465 -2.459061622619629 -0.13074055314064026
0.7141100168228149 0.7462297677993774 -0.06643040478229523
1.0879719257354736 0.43361660838127136 -0.09443814307451248
1.8767693042755127 -0.08489536494016647 -0.15412619709968567
4.041919231414795 -2.023159980773926 -0.3010096251964569
1.9963293075561523 -2.4329674243927 -0.13355617225170135
0.7013648748397827 0.7377938628196716 -0.06440167129039764
1.100290298461914 0.4432063698768616 -0.09502266347408295
1.8670827150344849 -0.07825394719839096 -0.15330855548381805
4.076077461242676 -2.02160906791687 -0.3037972152233124
1.995609998703003 -2.4139931201934814 -0.13565349578857422
0.7054060101509094 0.7477738261222839 -0.06431540101766586
1.8772873878479004 -0.07113373279571533 -0.15478196740150452
4.079791069030762 -2.002202033996582 -0.30743011832237244
1.9955979585647583 -2.394341230392456 -0.13826854526996613
0.7027062773704529 0.750403106212616 -0.06323885917663574
1.9905903339385986 -2.372292995452881 -0.1406252533197403
0.693452775478363 0.7454608678817749 -0.06173642724752426
3.302560329437256 -1.5922555923461914 -0.25187593698501587
1.98627769947052 -2.3496103286743164 -0.1429399698972702
0.687113344669342 0.7446175813674927 -0.06037280708551407
4.094641208648682 -0.11008256673812866 -0.33748218417167664
3.2947516441345215 -1.5736340284347534 -0.2527596950531006
1.9850795269012451 -2.3308115005493164 -0.1449156105518341
0.6813029050827026 0.7432512044906616 -0.05919554829597473
4.095017433166504 -0.09507421404123306 -0.33748218417167664
3.291551113128662 -1.5566118955612183 -0.2552466094493866
1.9707280397415161 -2.2968528270721436 -0.1469583958387375
0.6887008547782898 0.7568724155426025 -0.05882452428340912
4.090356349945068 -0.0799671933054924 -0.33707162737846375
3.3694610595703125 -1.5783709287643433 -0.26149049401283264
1.9659686088562012 -2.2743844985961914 -0.14913664758205414
0.6893091797828674 0.7631413340568542 -0.05803460627794266
4.090632915496826 -0.0642608031630516 -0.33707162737846375
1.9709256887435913 -2.263298749923706 -0.15150797367095947
0.6865410208702087 0.7657000422477722 -0.05713716894388199
4.070910453796387 -0.04902741312980652 -0.3354293704032898
1.9626373052597046 -2.237170934677124 -0.1533641219139099
0.6870821714401245 0.7719775438308716 -0.05651269480586052
1.2585079669952393 0.5566431283950806 -0.10347063839435577
4.091005802154541 -0.03284540772438049 -0.33707162737846375
1.964103102684021 -2.222358465194702 -0.1559554487466812
1.2521512508392334 0.5588034391403198 -0.10237781703472137
4.085994720458984 -0.018541783094406128 -0.33808737993240356
4.432488441467285 -1.998551845550537 -0.35279324650764465
1.9580954313278198 -2.2008097171783447 -0.15747597813606262
1.2865111827850342 0.5798011422157288 -0.10461722314357758
4.071086406707764 -0.003552693873643875 -0.33685046434402466
4.425839900970459 -1.976067066192627 -0.3559376001358032
1.946043848991394 -2.171187162399292 -0.15892788767814636
4.0860819816589355 0.010697361081838608 -0.337374210357666
4.424102783203125 -1.954952359199524 -0.35773783922195435
1.9471845626831055 -2.1565046310424805 -0.1614263653755188
4.086015224456787 0.025673529133200645 -0.337374210357666
4.417418956756592 -1.9326781034469604 -0.35831454396247864
1.9448834657669067 -2.138148546218872 -0.16362115740776062
4.075920581817627 0.04126158729195595 -0.33655133843421936
4.410573959350586 -1.9104539155960083 -0.3597196638584137
1.9526102542877197 -2.1309001445770264 -0.16614341735839844
4.075741767883301 0.0562003068625927 -0.33655133843421936
4.403509616851807 -1.8882566690444946 -0.3627815246582031
1.9331830739974976 -2.0942370891571045 -0.16732999682426453
4.075567245483398 0.07113929092884064 -0.3358398973941803
4.396842002868652 -1.8654431104660034 -0.36331626772880554
1.9373466968536377 -2.083374500274658 -0.16951970756053925
1.4911848306655884 1.773978590965271 -0.10847801715135574
4.075263977050781 0.08678779006004333 -0.3358398973941803
1.9346318244934082 -2.0652241706848145 -0.1710970550775528
1.4847447872161865 1.7795183658599854 -0.10605112463235855
4.074918746948242 0.10172379016876221 -0.3358398973941803
1.9352139234542847 -2.0507287979125977 -0.173446387052536
1.4496089220046997 1.7504093647003174 -0.10161415487527847
4.0458478927612305 1.9680500030517578 -0.3130311965942383
4.064614772796631 0.11637487262487411 -0.33430910110473633
4.048140048980713 -1.6643915176391602 -0.3383243978023529
1.9219825267791748 -2.021810531616211 -0.17403888702392578
4.074099063873291 0.13230445981025696 -0.33512845635414124
4.053993225097656 -1.6494536399841309 -0.34137997031211853
1.9327255487442017 -2.0182461738586426 -0.17678889632225037
0.975801408290863 1.1960244178771973 -0.06604494154453278
4.063509941101074 0.1468716859817505 -0.3357284963130951
4.060415267944336 -1.6330997943878174 -0.3436715602874756
1.9094711542129517 -1.9780060052871704 -0.177306666970253
4.06297492980957 0.16247567534446716 -0.3350188136100769
4.098396301269531 -1.631778597831726 -0.34795141220092773
1.9092997312545776 -1.9640616178512573 -0.17905351519584656
4.057373523712158 0.1771487444639206 -0.3346082270145416
4.1650390625 -1.638973355293274 -0.3554061949253082
1.9065607786178589 -1.9455567598342896 -0.18092773854732513
0.7013137340545654 0.8785205483436584 -0.04455968365073204
4.05687141418457 0.19202683866024017 -0.3324817419052124
4.365384578704834 -1.7011146545410156 -0.3736642003059387
1.898898720741272 -1.9249272346496582 -0.1814900040626526
0.7046287059783936 0.8887014985084534 -0.043966058641672134
4.046034812927246 0.20708727836608887 -0.3330800235271454
4.371577739715576 -1.6842223405838013 -0.3777525722980499
1.8987512588500977 -1.9107190370559692 -0.18411143124103546
0.7199290990829468 0.9148667454719543 -0.04411224648356438
4.050282001495361 0.2221914380788803 -0.33278176188468933
4.368284702301025 -1.6645922660827637 -0.3785806894302368
1.8985693454742432 -1.8965822458267212 -0.18577148020267487
0.7135236859321594 0.9135972857475281 -0.042709022760391235
4.034475326538086 0.2368655651807785 -0.3315553069114685
4.36490535736084 -1.6450088024139404 -0.37940171360969543
1.8983086347579956 -1.8824715614318848 -0.18741394579410553
0.7102017998695374 0.9162468910217285 -0.04129274562001228
4.038610935211182 0.2519649565219879 -0.3312578797340393
4.366332530975342 -1.6264275312423706 -0.3814361095428467
1.8979696035385132 -1.8683881759643555 -0.18903887271881104
0.716005265712738 0.9307594299316406 -0.04059700295329094
4.037718296051025 0.26676931977272034 -0.3305516242980957
4.348759651184082 -1.6017557382583618 -0.38101404905319214
1.901071548461914 -1.8577709197998047 -0.19193248450756073
0.7035171985626221 0.9214949011802673 -0.03886469826102257
4.036779403686523 0.2822790741920471 -0.3291391134262085
4.345048427581787 -1.5823272466659546 -0.38261595368385315
1.8937987089157104 -1.836500883102417 -0.19187338650226593
0.688087522983551 0.9081664085388184 -0.037001460790634155
1.2765462398529053 0.6922428607940674 -0.09085330367088318
4.040629863739014 0.29743435978889465 -0.3302516043186188
4.341589450836182 -1.562212347984314 -0.3834019899368286
1.889569878578186 -1.8190090656280518 -0.1939897984266281
0.6847772598266602 0.9107127785682678 -0.0358082614839077
1.2346386909484863 0.6753848791122437 -0.08730656653642654
4.029632568359375 0.31147828698158264 -0.32873374223709106
4.337769985198975 -1.5429044961929321 -0.38418105244636536
1.8888914585113525 -1.8050638437271118 -0.19553226232528687
0.6847693920135498 0.91701740026474 -0.034567102789878845
4.018472671508789 0.3261423707008362 -0.32792308926582336
4.338505268096924 -1.5252759456634521 -0.38617321848869324
1.891753077507019 -1.794579267501831 -0.1974346935749054
0.678449273109436 0.9155341386795044 -0.03322287276387215
1.2471085786819458 0.6944168210029602 -0.08605378866195679
4.02227258682251 0.3412947952747345 -0.3276238739490509
4.334789276123047 -1.5052930116653442 -0.38693827390670776
1.8836740255355835 -1.7738436460494995 -0.19818270206451416
0.6928753852844238 0.9422011971473694 -0.03287244215607643
1.248945951461792 0.7014490962028503 -0.08560466766357422
4.016139030456543 0.3563113510608673 -0.3251083493232727
4.326011657714844 -1.4844998121261597 -0.3872743546962738
1.87577486038208 -1.7528644800186157 -0.19889576733112335
0.6809174418449402 0.9324027895927429 -0.03164496645331383
4.019711494445801 0.3714821934700012 -0.3262147605419159
4.331422328948975 -1.4677910804748535 -0.39046725630760193
1.8820332288742065 -1.7458351850509644 -0.201584130525589
0.6716516613960266 0.9268283247947693 -0.029972605407238007
4.013418674468994 0.38574132323265076 -0.3251083493232727
4.331984996795654 -1.4503026008605957 -0.39083927869796753
1.8809560537338257 -1.7320526838302612 -0.2030327320098877
0.6655142903327942 0.9251385927200317 -0.02844940312206745
4.016923904418945 0.40165039896965027 -0.3248056173324585
4.024860382080078 -1.3310953378677368 -0.36566874384880066
1.8798028230667114 -1.71830153465271 -0.20446373522281647
0.6592345833778381 0.9235307574272156 -0.02693837322294712
4.010580062866211 0.4158680737018585 -0.32299721240997314
3.954172372817993 -1.2908951044082642 -0.35879361629486084
1.8859550952911377 -1.7112796306610107 -0.20668616890907288
0.6587478518486023 0.9300387501716614 -0.02606247551739216
4.004166603088379 0.4286288321018219 -0.3233008086681366
4.271536827087402 -1.3771992921829224 -0.39028674364089966
1.8772423267364502 -1.690869927406311 -0.20771409571170807
0.6582242846488953 0.9365584850311279 -0.024978041648864746
4.002392768859863 0.44540390372276306 -0.3225979506969452
4.285918235778809 -1.3645148277282715 -0.3927231431007385
1.894730567932129 -1.693489670753479 -0.21116091310977936
0.6522663235664368 0.934654176235199 -0.023874357342720032
4.010852336883545 0.4598155915737152 -0.32269182801246643
4.295746803283691 -1.3494997024536133 -0.3947298526763916
1.9045132398605347 -1.6897172927856445 -0.21379686892032623
0.6517005562782288 0.9411750435829163 -0.022380677983164787
4.009030342102051 0.47591906785964966 -0.32198721170425415
4.291017532348633 -1.330754280090332 -0.3954247832298279
1.9142916202545166 -1.68589448928833 -0.21644137799739838
0.6539210677146912 0.951816976070404 -0.021366845816373825
3.992387533187866 0.48949626088142395 -0.32009267807006836
4.262624263763428 -1.3040286302566528 -0.39391210675239563
1.9240655899047852 -1.682020902633667 -0.2190944105386734
0.6504403948783875 0.9542252421379089 -0.020157529041171074
3.9955670833587646 0.5047575235366821 -0.3197864294052124
4.267243385314941 -1.2883567810058594 -0.3954680860042572
1.9379197359085083 -1.6810482740402222 -0.22173964977264404
0.6527197957038879 0.9647883772850037 -0.01911224238574505
3.9887120723724365 0.5194591283798218 -0.31868860125541687
4.257706642150879 -1.2676594257354736 -0.39569324254989624
0.6436193585395813 0.9588907957077026 -0.01753726601600647
3.9870007038116455 0.5341043472290039 -0.31588035821914673
4.257413387298584 -1.2506030797958374 -0.3967985510826111
0.6404474377632141 0.9610370397567749 -0.016126317903399467
3.990200996398926 0.5480085611343384 -0.31556886434555054
4.261968612670898 -1.2349904775619507 -0.3967985510826111
3.0571820735931396 -2.5935964584350586 -0.35709983110427856
0.6314136981964111 0.955048143863678 -0.014987586066126823
3.9829890727996826 0.5640265941619873 -0.3144761919975281
4.266411304473877 -1.2185401916503906 -0.3998962640762329
3.0631165504455566 -2.578470230102539 -0.359451562166214
0.6443719863891602 0.9824565649032593 -0.01373979076743126
3.9809494018554688 0.5786290764808655 -0.31377407908439636
4.2612624168396 -1.2001947164535522 -0.39899858832359314
3.083768606185913 -2.5766024589538574 -0.3642997443675995
0.6380475163459778 0.9806325435638428 -0.012456178665161133
3.890310525894165 0.57863450050354 -0.30608898401260376
4.26570463180542 -1.183786392211914 -0.4005438983440399
3.100611448287964 -2.5714359283447266 -0.3687179684638977
0.6290331482887268 0.9745734333992004 -0.011135028675198555
3.592535972595215 0.5484519004821777 -0.2809094488620758
4.236325740814209 -1.1589275598526 -0.3981565833091736
3.1179513931274414 -2.565674066543579 -0.37244856357574463
0.9079306125640869 0.59187251329422 -0.05073217675089836
3.6300013065338135 0.5677939057350159 -0.28270962834358215
4.250026226043701 -1.1459494829177856 -0.400596022605896
3.1347930431365967 -2.560321092605591 -0.3768993020057678
0.901817262172699 0.5921579599380493 -0.049745216965675354
3.6230220794677734 0.5803140997886658 -0.28168562054634094
4.239821910858154 -1.125752568244934 -0.4007677733898163
3.170968770980835 -2.570549964904785 -0.38370680809020996
0.8055191040039062 1.2771644592285156 -0.009487546980381012
0.8911402821540833 0.5902803540229797 -0.04835183545947075
3.6355743408203125 0.5966513156890869 -0.2821907699108124
4.234149932861328 -1.107649564743042 -0.40138575434684753
4.180746078491211 -3.363809585571289 -0.5081803202629089
0.8008381724357605 1.2801170349121094 -0.0076427641324698925
0.889205813407898 0.5932508707046509 -0.04760558530688286
3.6629111766815186 0.6149328947067261 -0.28383368253707886
4.214195251464844 -1.0851579904556274 -0.39986205101013184
0.7935085296630859 1.2788012027740479 -0.006041441112756729
0.8992906212806702 0.60521000623703 -0.04713784530758858
0.789043128490448 1.2815686464309692 -0.004202747251838446
0.8973057866096497 0.608207106590271 -0.04638107493519783
2.9954187870025635 0.5260171890258789 -0.23080837726593018
2.0433459281921387 -0.5098421573638916 -0.19499623775482178
3.235172986984253 -2.544001817703247 -0.39991387724876404
0.7795764207839966 1.275648832321167 -0.002348339417949319
0.9074850678443909 0.6199731230735779 -0.04587139934301376
2.040365695953369 -0.5011618733406067 -0.1945352405309677
3.2172324657440186 -2.509962320327759 -0.399377703666687
0.7800799012184143 1.2870508432388306 -0.0005253441049717367
0.892888605594635 0.6148132681846619 -0.0444890521466732
3.8303303718566895 0.7016151547431946 -0.2921122908592224
2.037402629852295 -0.4921468198299408 -0.1944400817155838
3.1907248497009277 -2.4705233573913574 -0.3985159397125244
0.7779331803321838 1.2941865921020508 0.0010541786905378103
0.8783413767814636 0.6095542311668396 -0.04312761500477791
3.8670425415039062 0.7229987978935242 -0.2937312722206116
2.0245959758758545 -0.4812066853046417 -0.19378092885017395
3.223207950592041 -2.4768316745758057 -0.4043022692203522
0.7655026912689209 1.2841427326202393 0.002870192052796483
0.8884201049804688 0.6213855147361755 -0.04259689897298813
2.021465539932251 -0.47264185547828674 -0.19367967545986176
3.2325258255004883 -2.464308261871338 -0.4064306318759918
0.7559223771095276 1.2781949043273926 0.0049244374968111515
0.8779993057250977 0.6189014911651611 -0.04126689210534096
3.949808120727539 0.7691958546638489 -0.2976231276988983
2.013561487197876 -0.46264684200286865 -0.19275076687335968
3.2531538009643555 -2.461233615875244 -0.4114830195903778
0.7567382454872131 1.289313554763794 0.006523147225379944
0.8757482171058655 0.6221318244934082 -0.040516942739486694
3.94706392288208 0.7836876511573792 -0.2962184548377991
2.01035475730896 -0.4541592299938202 -0.19264601171016693
3.2663283348083496 -2.4515373706817627 -0.4148361086845398
0.7494879961013794 1.2877494096755981 0.008321686647832394
0.8694334626197815 0.6224532127380371 -0.03920876607298851
3.9393393993377686 0.7978883385658264 -0.2930454611778259
2.002363681793213 -0.4442799985408783 -0.19171535968780518
3.283095359802246 -2.445361614227295 -0.41799014806747437
0.7422600388526917 1.2861504554748535 0.009589645080268383
0.8590638041496277 0.6198042631149292 -0.03810279816389084
3.93643856048584 0.8123316168785095 -0.2923439145088196
2.003880262374878 -0.4369165599346161 -0.19278927147388458
3.291682243347168 -2.4330503940582275 -0.4222768545150757
0.7377586960792542 1.288720726966858 0.011663042940199375
0.8527714014053345 0.6200295686721802 -0.037002984434366226
3.9384148120880127 0.8278006911277771 -0.2913018465042114
1.9958075284957886 -0.4271354377269745 -0.19185340404510498
3.2927403450012207 -2.414337158203125 -0.4241012930870056
0.7330227494239807 1.2914026975631714 0.013477248139679432
0.8666475415229797 0.6349872350692749 -0.036579396575689316
3.9355030059814453 0.8422619700431824 -0.28919461369514465
2.0021984577178955 -0.42083460092544556 -0.19267842173576355
3.3093087673187256 -2.4078853130340576 -0.4287060499191284
0.7262752652168274 1.2894572019577026 0.014981650747358799
0.8562944531440735 0.63223797082901 -0.03549603745341301
3.9323389530181885 0.8573884963989258 -0.2877897322177887
1.998858094215393 -0.41212478280067444 -0.19292204082012177
3.3506031036376953 -2.4183096885681152 -0.43503695726394653
0.7166581153869629 1.283360481262207 0.016932807862758636
0.8622434139251709 0.6410592198371887 -0.03470420464873314
1.9906302690505981 -0.4028279185295105 -0.19162647426128387
0.717008113861084 1.294582486152649 0.018856028094887733
0.8559169769287109 0.6412401795387268 -0.03342285007238388
1.9628658294677734 -0.3893699645996094 -0.18880844116210938
0.7146495580673218 1.3015564680099487 0.02125214971601963
0.8616884350776672 0.6502724885940552 -0.032227955758571625
0.7026129961013794 1.2796348333358765 0.02165873907506466
0.8617105484008789 0.6502891182899475 -0.031285881996154785
0.7145741581916809 1.2901878356933594 0.020594216883182526
0.8560742735862732 0.6411247849464417 -0.03155621141195297
0.7168682813644409 1.2832106351852417 0.019241703674197197
0.8584095239639282 0.6379761099815369 -0.03192954882979393
1.9812147617340088 -0.40164247155189514 -0.18539546430110931
0.7289376854896545 1.2936558723449707 0.018142247572541237
0.8647505044937134 0.637782096862793 -0.03264136239886284
3.933445692062378 0.856910765171051 -0.2737390697002411
1.9945167303085327 -0.4119555354118347 -0.18498815596103668
3.339055061340332 -2.4108612537384033 -0.4219672381877899
0.7312144041061401 1.2866472005844116 0.016273122280836105
0.8589979410171509 0.6286914944648743 -0.03308088332414627
3.931735038757324 0.8407378792762756 -0.2748033404350281
1.9978561401367188 -0.4206501543521881 -0.18472778797149658
3.3059396743774414 -2.4063162803649902 -0.41534140706062317
0.7379672527313232 1.2885633707046509 0.015291431918740273
0.8653259873390198 0.6284654140472412 -0.033796168863773346
3.944554090499878 0.8283721804618835 -0.27548524737358093
2.006070613861084 -0.43006429076194763 -0.18527083098888397
3.293377161026001 -2.4156880378723145 -0.41127198934555054
0.7449693083763123 1.2903246879577637 0.013522625900804996
0.8635499477386475 0.622353732585907 -0.03438137471675873
3.9377450942993164 0.8118847608566284 -0.27550506591796875
2.0044989585876465 -0.43778446316719055 -0.1841965615749359
3.292790412902832 -2.4338696002960205 -0.40870073437690735
0.7547318339347839 1.296238660812378 0.012042641639709473
0.8697666525840759 0.6222326159477234 -0.03510274365544319
3.940833568572998 0.7967589497566223 -0.27550506591796875
2.0030059814453125 -0.4451562166213989 -0.18276412785053253
3.27179217338562 -2.4378304481506348 -0.40293845534324646
0.7544203996658325 1.2848507165908813 0.010402077808976173
0.8679463863372803 0.6161336898803711 -0.03568181023001671
3.8898584842681885 0.7716239094734192 -0.2724372148513794
2.016044855117798 -0.45544466376304626 -0.1837342083454132
3.247992753982544 -2.436889410018921 -0.39813822507858276
0.7616772055625916 1.2863880395889282 0.008871456608176231
0.87017822265625 0.6129338145256042 -0.036424897611141205
3.843696355819702 0.747835099697113 -0.2690103352069855
2.0191164016723633 -0.4646652340888977 -0.1834537237882614
3.2662956714630127 -2.4711763858795166 -0.3972647190093994
0.7689543962478638 1.2878879308700562 0.007330353371798992
0.8764989376068115 0.6125919818878174 -0.03715582191944122
2.031959295272827 -0.47584351897239685 -0.18368402123451233
3.2373242378234863 -2.468860149383545 -0.3905879557132721
0.7783793210983276 1.2939056158065796 0.00579796964302659
0.8746106028556824 0.6065129041671753 -0.03772525116801262
3.8196418285369873 0.7134466171264648 -0.26898881793022156
2.040092945098877 -0.48489001393318176 -0.18419481813907623
3.233283042907715 -2.482779026031494 -0.38821959495544434
0.7831189036369324 1.2910479307174683 0.00448025343939662
0.8809223175048828 0.6061204671859741 -0.03864888474345207
3.729050874710083 0.6823908090591431 -0.2617664337158203
2.0479373931884766 -0.49544820189476013 -0.18359893560409546
3.211749315261841 -2.486802101135254 -0.38325294852256775
0.78762286901474 1.2883100509643555 0.002635445911437273
0.8913630247116089 0.6085027456283569 -0.03995193913578987
2.0509188175201416 -0.504513144493103 -0.18329571187496185
3.2221145629882812 -2.514676094055176 -0.38132137060165405
0.7897167801856995 1.2811598777770996 0.0013133600587025285
0.8894388675689697 0.6024218201637268 -0.040141962468624115
3.1885809898376465 0.5587906241416931 -0.22522976994514465
3.2639620304107666 -2.5666403770446777 -0.3844606578350067
0.8018745183944702 1.2912774085998535 -0.0002652900293469429
0.8916174173355103 0.5991420149803162 -0.040891919285058975
0.8123602867126465 1.2965208292007446 -0.002136282157152891
0.8937833905220032 0.5958541035652161 -0.04164185747504234
3.6009504795074463 0.6032385230064392 -0.25467145442962646
4.235398292541504 -1.0921944379806519 -0.37498027086257935
4.171841621398926 -3.3303372859954834 -0.48392727971076965
0.8139854073524475 1.2895901203155518 -0.003193950280547142
0.900110125541687 0.5953181385993958 -0.04240059852600098
3.588414192199707 0.5876253843307495 -0.25299307703971863
4.245883941650391 -1.1123028993606567 -0.37319737672805786
0.9106155037879944 0.597480297088623 -0.04355356842279434
3.5905003547668457 0.5744622349739075 -0.2536277174949646
4.256349086761475 -1.131731390953064 -0.3729308843612671
3.137617349624634 -2.543513774871826 -0.3590564727783203
0.9295216798782349 0.6050232648849487 -0.045127011835575104
3.548238515853882 0.5537360906600952 -0.25175008177757263
4.247425079345703 -1.146043300628662 -0.3717412054538727
3.132420539855957 -2.5583834648132324 -0.3552641272544861
0.6433042883872986 0.9951586127281189 -0.0066182538866996765
3.846050977706909 0.5857808589935303 -0.27340826392173767
4.247923851013184 -1.1636942625045776 -0.3706247806549072
3.1347999572753906 -2.579538345336914 -0.35303401947021484
0.6469440460205078 0.9927889108657837 -0.007652342785149813
3.9813294410705566 0.5914621353149414 -0.2835748791694641
4.258280277252197 -1.183327078819275 -0.3687971830368042
3.0905978679656982 -2.563131332397461 -0.34563174843788147
0.6450836062431335 0.9820460081100464 -0.008818193338811398
3.9883575439453125 0.5775735974311829 -0.2846296727657318
4.268215656280518 -1.203761339187622 -0.36849647760391235
3.0585200786590576 -2.555506467819214 -0.33888527750968933
0.6400555372238159 0.9673852920532227 -0.009717878885567188
3.9855082035064697 0.5615454316139221 -0.28568235039711
4.273845195770264 -1.22066330909729 -0.36854884028434753
3.0502090454101562 -2.565786123275757 -0.3361027240753174
0.6546862721443176 0.9816606044769287 -0.011327012442052364
3.992530584335327 0.547618567943573 -0.2853330373764038
4.27916145324707 -1.239162802696228 -0.36626508831977844
3.037249803543091 -2.573953151702881 -0.3315136432647705
0.6471155881881714 0.9626466631889343 -0.012349715456366539
3.989610195159912 0.5316189527511597 -0.28568235039711
4.274494647979736 -1.2556205987930298 -0.3647100329399109
0.6506319642066956 0.9602572917938232 -0.013564389199018478
3.9964287281036377 0.517626941204071 -0.286739706993103
4.26476526260376 -1.2713817358016968 -0.3627486526966095
0.6484996676445007 0.9495964646339417 -0.014651642180979252
3.9982492923736572 0.5029695630073547 -0.28744304180145264
4.283825397491455 -1.2949949502944946 -0.3632175922393799
1.938852310180664 -1.6818571090698242 -0.20696020126342773
0.6544708013534546 0.9515491127967834 -0.01572318561375141
4.000016212463379 0.48830583691596985 -0.28814634680747986
4.293467044830322 -1.31510329246521 -0.3628636300563812
1.9252773523330688 -1.6824874877929688 -0.20437151193618774
0.6550959348678589 0.9450210928916931 -0.016859276220202446
4.001911640167236 0.47294920682907104 -0.28744304180145264
4.293618679046631 -1.3323824405670166 -0.36012789607048035
1.9152218103408813 -1.686713695526123 -0.201300710439682
0.6583802700042725 0.9427136778831482 -0.018063414841890335
4.003468036651611 0.458261102437973 -0.2895529866218567
4.28847074508667 -1.3488589525222778 -0.36012789607048035
1.9016997814178467 -1.6872212886810303 -0.19829589128494263
0.658944308757782 0.9361928701400757 -0.018983948975801468
4.010205268859863 0.443439245223999 -0.28920719027519226
4.269964218139648 -1.3586148023605347 -0.3558019697666168
1.8888118267059326 -1.6870139837265015 -0.1948663294315338
0.6565724611282349 0.9255968332290649 -0.020204611122608185
4.011753082275391 0.4287327527999878 -0.2899113595485687
3.965740203857422 -1.2793705463409424 -0.3294135630130768
1.889560341835022 -1.7013678550720215 -0.19341470301151276
0.6657624244689941 0.9312999844551086 -0.021581463515758514
4.018208026885986 0.4145326018333435 -0.2909747064113617
4.013134956359863 -1.3116947412490845 -0.33080053329467773
1.8908220529556274 -1.7150940895080566 -0.19194552302360535
0.6688334941864014 0.9290682673454285 -0.0227802786976099
4.02468204498291 0.3995884954929352 -0.2920398414134979
1.8886529207229614 -1.7251816987991333 -0.1896418333053589
0.6692867875099182 0.9225479364395142 -0.023675434291362762
4.021205902099609 0.38436490297317505 -0.2909747064113617
4.334508895874023 -1.451988935470581 -0.35494816303253174
1.885501742362976 -1.7362385988235474 -0.18777482211589813
0.6785489916801453 0.9281389117240906 -0.02508711628615856
4.0176215171813965 0.3691675662994385 -0.2906154990196228
4.343297481536865 -1.4735056161880493 -0.35290753841400146
1.8938930034637451 -1.7568366527557373 -0.18653100728988647
0.6760004758834839 0.9175751805305481 -0.02606247551739216
1.241371512413025 0.6957707405090332 -0.07433035969734192
4.023926258087158 0.3541710674762726 -0.2916797399520874
4.347472667694092 -1.4927124977111816 -0.3512679934501648
1.8948472738265991 -1.7706871032714844 -0.1849880814552307
0.682003915309906 0.9193242788314819 -0.027175715193152428
1.2479897737503052 0.6940517425537109 -0.07558812201023102
4.03993558883667 0.3420833349227905 -0.2934677004814148
4.351770401000977 -1.5111899375915527 -0.3504219353199005
1.8999805450439453 -1.787323236465454 -0.1837790310382843
0.6853484511375427 0.9167911410331726 -0.028574181720614433
4.031283378601074 0.3250575363636017 -0.29345160722732544
4.346317768096924 -1.5271703004837036 -0.34881386160850525
1.9004591703414917 -1.801578164100647 -0.18219666182994843
0.682990312576294 0.9060297608375549 -0.029314780607819557
1.2444607019424438 0.6796295046806335 -0.07629695534706116
4.032603740692139 0.30958396196365356 -0.2920398414134979
4.354358673095703 -1.5496611595153809 -0.34833306074142456
1.9005842208862305 -1.8162376880645752 -0.17967912554740906
0.6829501986503601 0.8997536301612854 -0.030368562787771225
1.2117723226547241 0.6560230851173401 -0.07510975748300552
4.04360818862915 0.2955249547958374 -0.2934677004814148
4.3535685539245605 -1.5673812627792358 -0.3454785943031311
1.9011924266815186 -1.8301975727081299 -0.17851871252059937
0.707474946975708 0.9250041842460632 -0.03273196145892143
1.2537009716033936 0.6727920770645142 -0.07880067080259323
4.044510364532471 0.2806917428970337 -0.29559051990509033
4.356944561004639 -1.587520718574524 -0.34541383385658264
1.9053270816802979 -1.8476804494857788 -0.17721503973007202
0.7105243802070618 0.9226346611976624 -0.03354495391249657
4.045568466186523 0.2665788233280182 -0.29417529702186584
4.370599746704102 -1.608933687210083 -0.34364813566207886
1.9064395427703857 -1.861066222190857 -0.17555633187294006
0.7142004370689392 0.9197467565536499 -0.03476441651582718
4.0515313148498535 0.25064146518707275 -0.29524558782577515
4.378235340118408 -1.6317312717437744 -0.3431209325790405
1.9133305549621582 -1.8828521966934204 -0.17359191179275513
0.7144603133201599 0.9131527543067932 -0.03603176027536392
4.052268028259277 0.23578117787837982 -0.2973710000514984
4.3719940185546875 -1.6485517024993896 -0.342305451631546
1.9135897159576416 -1.8969628810882568 -0.17235615849494934
0.7084970474243164 0.8987241983413696 -0.036764275282621384
4.053246974945068 0.2202254980802536 -0.2959540784358978
4.380123138427734 -1.6699790954589844 -0.3401288688182831
1.9173436164855957 -1.9146684408187866 -0.1704762578010559
4.0539751052856445 0.20536552369594574 -0.2966625392436981
4.383445739746094 -1.6896731853485107 -0.33839285373687744
1.9171173572540283 -1.9292008876800537 -0.16873076558113098
4.064663410186768 0.1909736692905426 -0.29739147424697876
1.9241554737091064 -1.9505300521850586 -0.16757823526859283
4.060271263122559 0.1765652745962143 -0.2977363169193268
1.9143050909042358 -1.9534595012664795 -0.16440893709659576
4.070912837982178 0.16065821051597595 -0.2984669804573059
4.0774078369140625 -1.6242464780807495 -0.3107587695121765
1.930921196937561 -1.9863033294677734 -0.16360822319984436
1.0466340780258179 1.28056001663208 -0.06122265011072159
4.076354026794434 0.14733590185642242 -0.29954418540000916
4.062658786773682 -1.6348259449005127 -0.3069952428340912
1.934804916381836 -2.003549098968506 -0.16254815459251404
4.066921710968018 0.13136082887649536 -0.29881182312965393
4.066029071807861 -1.6535236835479736 -0.30539631843566895
1.9482916593551636 -2.032369613647461 -0.16134780645370483
1.1101397275924683 1.3381198644638062 -0.06800862401723862
4.07240104675293 0.11517512053251266 -0.29917803406715393
4.091797351837158 -1.6831762790679932 -0.3055090010166168
1.94365394115448 -2.0438930988311768 -0.15917259454727173
1.1021820306777954 1.3186626434326172 -0.06872672587633133
4.067758560180664 0.10012426227331161 -0.2995220124721527
1.9499897956848145 -2.065664291381836 -0.15682905912399292
4.083069324493408 0.08481516689062119 -0.30062320828437805
1.9459123611450195 -2.0765395164489746 -0.15462130308151245
4.073357105255127 0.07110070437192917 -0.29988908767700195
4.413541793823242 -1.871619462966919 -0.3251400589942932
1.9455456733703613 -2.0907275676727295 -0.15267162024974823
4.083643436431885 0.054170671850442886 -0.29991039633750916
4.41990327835083 -1.895286202430725 -0.3236370384693146
1.9541609287261963 -2.116962432861328 -0.15149207413196564
4.083709239959717 0.0392020009458065 -0.3013359606266022
4.4264817237854 -1.918262004852295 -0.32211834192276
1.9599887132644653 -2.1389522552490234 -0.14950427412986755
1.540972352027893 1.7776929140090942 -0.1060086265206337
4.083825588226318 0.024234194308519363 -0.3013359606266022
4.433286190032959 -1.9405418634414673 -0.3205837607383728
1.9690234661102295 -2.164687395095825 -0.14823730289936066
4.088980197906494 0.008563952520489693 -0.30027657747268677
4.4353718757629395 -1.9608573913574219 -0.3195519745349884
1.9645429849624634 -2.1757290363311768 -0.14490897953510284
4.093922138214111 -0.00357262184843421 -0.30135732889175415
4.433654308319092 -1.977700114250183 -0.3156442940235138
1.9740570783615112 -2.200895309448242 -0.1440793126821518
4.093769550323486 -0.02000609040260315 -0.30278638005256653
4.375352382659912 -1.9737088680267334 -0.3112381398677826
1.9785844087600708 -2.2238383293151855 -0.141935795545578
4.0937676429748535 -0.03572576865553856 -0.30135732889175415
4.291772842407227 -1.953160285949707 -0.30244627594947815
1.9804364442825317 -2.2424161434173584 -0.13951735198497772
4.088640213012695 -0.04924094304442406 -0.3009902536869049
1.9796726703643799 -2.256589412689209 -0.13683970272541046
0.7035831809043884 0.7775789499282837 -0.05330561101436615
4.098381996154785 -0.06581348925828934 -0.3017244040966034
1.9747464656829834 -2.267686367034912 -0.13444334268569946
0.69965660572052 0.7675658464431763 -0.05406685918569565
4.098021507263184 -0.08011704683303833 -0.30315518379211426
3.3262617588043213 -1.5574270486831665 -0.22978706657886505
1.9901518821716309 -2.3007378578186035 -0.13388291001319885
0.6954271793365479 0.7578626871109009 -0.05408555641770363
3.2935690879821777 -1.5568629503250122 -0.22600635886192322
1.988304615020752 -2.315701961517334 -0.13112641870975494
0.708308756351471 0.7662440538406372 -0.05651235952973366
3.319403886795044 -1.583985686302185 -0.22753162682056427
1.9960793256759644 -2.3420703411102295 -0.12951409816741943
0.700878381729126 0.7526528239250183 -0.05641918256878853
1.868990182876587 -0.05808234587311745 -0.13830071687698364
3.35365629196167 -1.61689031124115 -0.22706125676631927
2.009338855743408 -2.376889944076538 -0.1271834373474121
0.6933517456054688 0.739119827747345 -0.05648194998502731
1.8638520240783691 -0.06411006301641464 -0.1372809261083603
2.0111544132232666 -2.3951022624969482 -0.12506665289402008
0.6994368433952332 0.740151047706604 -0.05800437927246094
1.1365382671356201 0.4619625210762024 -0.08815598487854004
1.8784922361373901 -0.07183605432510376 -0.1390383243560791
4.07691764831543 -2.0016748905181885 -0.2730148136615753
2.008829116821289 -2.4102160930633545 -0.12272820621728897
0.7018522620201111 0.7377906441688538 -0.05889303609728813
1.0966169834136963 0.44083720445632935 -0.08554961532354355
1.8682522773742676 -0.07830297201871872 -0.13830071687698364
4.04732084274292 -2.005586862564087 -0.2691497206687927
2.009617328643799 -2.4292099475860596 -0.1200130432844162
0.7011900544166565 0.7314497232437134 -0.05948859825730324
1.0889160633087158 0.433112233877182 -0.08544129133224487
1.8629716634750366 -0.08492287248373032 -0.1379319131374359
4.030477046966553 -2.017432689666748 -0.26540833711624146
2.015775203704834 -2.4566664695739746 -0.11763626337051392
0.7176834940910339 0.7431829571723938 -0.061923056840896606
1.0995697975158691 0.4331320524215698 -0.08699352294206619
1.8676120042800903 -0.09232170879840851 -0.13830071687698364
4.001173496246338 -2.020261764526367 -0.2631564438343048
2.0171520709991455 -2.475036144256592 -0.11540485173463821
0.7168921828269958 0.736939013004303 -0.062341686338186264
1.1152870655059814 0.4339355230331421 -0.08851245045661926
1.8623056411743164 -0.09890305995941162 -0.1376064270734787
3.9665536880493164 -2.0228044986724854 -0.2575126886367798
2.022994041442871 -2.5026519298553467 -0.1123763769865036
0.7230274081230164 0.7378159165382385 -0.06390643864870071
1.1120092868804932 0.42841988801956177 -0.08897562325000763
1.866909146308899 -0.10601077973842621 -0.137974351644516
3.946624994277954 -2.029160499572754 -0.2543230354785919
2.0335030555725098 -2.5327866077423096 -0.11115579307079315
0.7221894860267639 0.7315775752067566 -0.06431540101766586
1.1321943998336792 0.43143755197525024 -0.0906762182712555
1.861510992050171 -0.11287659406661987 -0.1376064270734787
3.9304168224334717 -2.0390753746032715 -0.25143250823020935
0.7245635986328125 0.7291305065155029 -0.06539187580347061
1.1477653980255127 0.4323313534259796 -0.09286603331565857
1.8511325120925903 -0.1190585121512413 -0.13687056303024292
3.905341625213623 -2.0442676544189453 -0.2479906529188156
0.7271822690963745 0.7264211773872375 -0.06646827608346939
1.1586557626724243 0.4315909445285797 -0.09405264258384705
1.855682611465454 -0.12618236243724823 -0.13691386580467224
3.8931639194488525 -2.056976318359375 -0.24540433287620544
1.2065279483795166 -1.5370839834213257 -0.06072594225406647
0.7297984957695007 0.7237100005149841 -0.06736522167921066
1.1601835489273071 0.4273243248462677 -0.09470002353191376
1.860158085823059 -0.13366413116455078 -0.1372809261083603
3.8901543617248535 -2.073660135269165 -0.2426050454378128
1.1917040348052979 -1.5297094583511353 -0.0585678406059742
0.7359506487846375 0.7244802117347717 -0.06877372413873672
1.180657148361206 0.42925742268562317 -0.09688524156808853
1.8595587015151978 -0.14112654328346252 -0.1379319131374359
3.890702724456787 -2.0940515995025635 -0.2408410608768463
1.1886523962020874 -1.5384914875030518 -0.05634355917572975
0.7386752367019653 0.7215984463691711 -0.06985514611005783
1.1914235353469849 0.4287039637565613 -0.09809615463018417
1.8541333675384521 -0.14690034091472626 -0.1372384876012802
3.900662422180176 -2.117886781692505 -0.2396056354045868
1.1739113330841064 -1.5309773683547974 -0.05422547832131386
0.7412709593772888 0.7188434600830078 -0.07075627148151398
1.2165721654891968 0.43224507570266724 -0.10070320218801498
1.848580241203308 -0.15425492823123932 -0.13622304797172546
3.901777982711792 -2.1370460987091064 -0.2370389848947525
1.1562188863754272 -1.5194039344787598 -0.051664166152477264
0.7507904767990112 0.7232593297958374 -0.0723496749997139
1.2415375709533691 0.43624040484428406 -0.10333632677793503
1.8530501127243042 -0.16081738471984863 -0.1362646073102951
3.907514810562134 -2.157953977584839 -0.23549988865852356
1.1421599388122559 -1.5113024711608887 -0.049605317413806915
0.7497856020927429 0.7170116305351257 -0.07290887087583542
1.247802734375 0.43331027030944824 -0.10418884456157684
1.8425155878067017 -0.16670936346054077 -0.13553395867347717
3.9084107875823975 -2.1771810054779053 -0.233684241771698
1.1426467895507812 -1.5235233306884766 -0.04754044860601425
0.752343475818634 0.7141968607902527 -0.07417628914117813
1.268153429031372 0.4351753294467926 -0.10693156719207764
1.807063341140747 -0.17049956321716309 -0.1336103081703186
3.9135706424713135 -2.1988885402679443 -0.23211625218391418
1.1251368522644043 -1.511688232421875 -0.045725759118795395
0.7512792944908142 0.7079697847366333 -0.07472055405378342
1.2839406728744507 0.4350895285606384 -0.10859733074903488
1.8064494132995605 -0.17712391912937164 -0.1332935094833374
3.914313793182373 -2.2182209491729736 -0.229491725564003
1.1225907802581787 -1.5198665857315063 -0.04353862255811691
0.7574628591537476 0.7085732221603394 -0.07598669826984406
1.8057560920715332 -0.18405885994434357 -0.1332935094833374
3.919198513031006 -2.240006446838379 -0.22946797311306
1.1199898719787598 -1.528032660484314 -0.04200052469968796
0.7637835144996643 0.7090065479278564 -0.07726148515939713
1.805092453956604 -0.19067850708961487 -0.1329767107963562
3.924078941345215 -2.2619168758392334 -0.2270674705505371
1.1085222959518433 -1.524071216583252 -0.040134306997060776
0.7550743818283081 0.6962747573852539 -0.07722808420658112
1.8044044971466064 -0.19729572534561157 -0.132659912109375
3.9370522499084473 -2.2895796298980713 -0.22593457996845245
1.1000311374664307 -1.5241090059280396 -0.037731483578681946
0.7686038613319397 0.703555703163147 -0.07926210761070251
1.859167456626892 0.599419891834259 -0.1605994701385498
1.8085886240005493 -0.20478372275829315 -0.13302436470985413
3.937418222427368 -2.309145927429199 -0.2224467694759369
1.0886383056640625 -1.5200332403182983 -0.035572901368141174
0.7674259543418884 0.6973251104354858 -0.07996876537799835
1.8278577327728271 0.5826408863067627 -0.15840131044387817
1.8276143074035645 -0.2137252688407898 -0.13480332493782043
3.933293581008911 -2.326143503189087 -0.22109505534172058
1.0772888660430908 -1.515892744064331 -0.033435218036174774
0.7733929753303528 0.6980789303779602 -0.0810806006193161
1.8442617654800415 0.5800783038139343 -0.160647913813591
1.8317928314208984 -0.22102253139019012 -0.13484661281108856
3.942030668258667 -2.3508546352386475 -0.21885736286640167
1.0662468671798706 -1.5115013122558594 -0.031318437308073044
0.7797276377677917 0.6983823180198669 -0.08238205313682556
1.8320461511611938 0.5688654184341431 -0.16007544100284576
1.8259822130203247 -0.22743810713291168 -0.13448216021060944
3.933485507965088 -2.3653457164764404 -0.2164541333913803
1.0435172319412231 -1.4908506870269775 -0.028904927894473076
0.7747567892074585 0.6888291239738464 -0.08286407589912415
1.8388735055923462 0.5632530450820923 -0.16183389723300934
1.8301057815551758 -0.2347666174173355 -0.13452458381652832
3.946272611618042 -2.392772674560547 -0.2144099473953247
1.0409116744995117 -1.4987918138504028 -0.027391914278268814
0.7772216796875 0.6859367489814758 -0.08376873284578323
1.8503822088241577 0.5593681931495667 -0.16368459165096283
1.829256296157837 -0.24147579073905945 -0.13420255482196808
1.032590389251709 -1.4985029697418213 -0.025411168113350868
0.7759157419204712 0.6797415018081665 -0.08444628119468689
1.833268642425537 0.5468695163726807 -0.16266493499279022
1.8184328079223633 -0.2471546083688736 -0.1334771364927292
1.027105689048767 -1.5022987127304077 -0.0235054399818182
0.7896263599395752 0.6866537928581238 -0.08658334612846375
1.8305208683013916 0.5384044647216797 -0.16290737688541412
1.817537784576416 -0.2538210451602936 -0.13315683603286743
4.606815814971924 -2.8641445636749268 -0.24253399670124054
1.0216056108474731 -1.5060726404190063 -0.02159968577325344
0.7959720492362976 0.686822235584259 -0.0879131406545639
1.8228036165237427 0.5288835167884827 -0.16338175535202026
1.8215086460113525 -0.26118549704551697 -0.13383984565734863
4.609055519104004 -2.8890135288238525 -0.24130520224571228
1.0105061531066895 -1.5015262365341187 -0.019901588559150696
0.7906093001365662 0.6776341199874878 -0.08817030489444733
1.8343172073364258 0.5245963931083679 -0.1652383804321289
1.8106480836868286 -0.2667274475097656 -0.13279499113559723
4.611246109008789 -2.913982391357422 -0.2381618469953537
0.9994561672210693 -1.4969227313995361 -0.017592638731002808
0.7892342805862427 0.6714535355567932 -0.08865274488925934
1.8217895030975342 0.5137977600097656 -0.16460482776165009
1.8047502040863037 -0.27262061834335327 -0.13211458921432495
4.621772766113281 -2.94439435005188 -0.23447023332118988
0.9939725995063782 -1.5005903244018555 -0.01570776291191578
0.7954365015029907 0.6717201471328735 -0.08998753875494003
1.790012240409851 0.4977603852748871 -0.16222119331359863
1.7988333702087402 -0.2784741222858429 -0.13143594563007355
4.6194257736206055 -2.966757297515869 -0.232981339097023
0.9884744882583618 -1.5042363405227661 -0.013822871260344982
0.7940152883529663 0.6655498147010803 -0.09046114236116409
1.825482964515686 0.5000805258750916 -0.1659262627363205
1.8026988506317139 -0.2861645519733429 -0.1314774602651596
4.625430583953857 -2.9946160316467285 -0.22998251020908356
0.9804926514625549 -1.503499150276184 -0.012218083254992962
0.7964916229248047 0.6624351143836975 -0.09154605120420456
1.7966701984405518 -0.291962593793869 -0.13175362348556519
4.635475158691406 -3.0252878665924072 -0.22716070711612701
0.9776968359947205 -1.5112892389297485 -0.010681352578103542
0.8101406097412109 0.6692545413970947 -0.09378348290920258
1.7710132598876953 -0.2944597899913788 -0.12963545322418213
4.645355701446533 -3.056072950363159 -0.22430391609668732
0.9775582551956177 -1.5232882499694824 -0.008529392071068287
0.8009595274925232 0.6567457914352417 -0.09353478997945786
1.7698471546173096 -0.301254004240036 -0.12994877994060516
4.646141529083252 -3.0822157859802246 -0.22296229004859924
0.9692871570587158 -1.5226486921310425 -0.006930685136467218
0.8071595430374146 0.6568969488143921 -0.09489268064498901
1.7638846635818481 -0.30689552426338196 -0.12865039706230164
4.655739784240723 -3.1132171154022217 -0.21907377243041992
0.9610341787338257 -1.5219694375991821 -0.004712383262813091
0.8134718537330627 0.6568580269813538 -0.09644167125225067
1.7627480030059814 -0.3133584260940552 -0.12865039706230164
4.656789779663086 -3.1386797428131104 -0.2176997810602188
0.9554511308670044 -1.5254844427108765 -0.003141591092571616
0.8157813549041748 0.6537979245185852 -0.0977189913392067
1.761509656906128 -0.32012057304382324 -0.12896287441253662
4.653614044189453 -3.161405563354492 -0.21514146029949188
0.9498547315597534 -1.5289779901504517 -0.0015707960119470954
0.8259101510047913 0.6569586396217346 -0.09938643127679825
1.7652500867843628 -0.3274884521961212 -0.12900875508785248
4.66270112991333 -3.192617893218994 -0.21313796937465668
0.9416218400001526 -1.5281927585601807 0.00031328658224083483
0.8280158042907715 0.6541621088981628 -0.10030734539031982
1.759159803390503 -0.3330327272415161 -0.12833791971206665
4.667539119720459 -3.2211220264434814 -0.20993264019489288
0.9362808465957642 -1.5314691066741943 0.002193005522713065
0.8265211582183838 0.6478424668312073 -0.1009339764714241
1.7579646110534668 -0.339167058467865 -0.12865039706230164
4.668127536773682 -3.2468502521514893 -0.20651783049106598
0.9358446002006531 -1.5434386730194092 0.004095411393791437
0.832734227180481 0.6477991938591003 -0.10251721739768982
1.7518383264541626 -0.34464964270591736 -0.12798042595386505
4.664437294006348 -3.2697150707244873 -0.20489241182804108
0.925025224685669 -1.5382840633392334 0.005952434614300728
0.8350317478179932 0.6446877717971802 -0.1034378707408905
1.7505239248275757 -0.35137808322906494 -0.1276688128709793
4.632132053375244 -3.2724549770355225 -0.20003435015678406
0.9193772077560425 -1.54165780544281 0.007832139730453491
0.8333530426025391 0.638530433177948 -0.10404942184686661
1.749224305152893 -0.3577917218208313 -0.1276688128709793
4.607979774475098 -3.2807767391204834 -0.196543887257576
0.9162619709968567 -1.5493143796920776 0.009424734860658646
0.8394494652748108 0.6385634541511536 -0.10564710944890976
3.9210877418518066 0.8735932111740112 -0.3783247768878937
1.7526777982711792 -0.36583420634269714 -0.1277129352092743
4.579793453216553 -3.286069869995117 -0.19191424548625946
0.9080424308776855 -1.5483399629592896 0.01127824280411005
0.8456955552101135 0.6384351849555969 -0.10688521713018417
3.924154281616211 0.8584742546081543 -0.3811292350292206
1.7513684034347534 -0.3719453811645508 -0.12802542746067047
4.555678367614746 -3.2941272258758545 -0.18747907876968384
0.9001113772392273 -1.547167420387268 0.013121266849339008
0.8320308923721313 0.6233450770378113 -0.10578528046607971
